ply
format ascii 1.0
element vertex 721
property float x
property float y
property float z
property float nx
property float ny
property float nz
property uchar diffuse_red
property uchar diffuse_green
property uchar diffuse_blue
end_header
-0.481892 0.594717 -3.17889 0.534195 0.677476 -0.50563 90 84 68 
-0.478803 0.594444 -3.17366 0.518387 0.694513 -0.498924 88 82 66 
-0.492554 0.597852 -3.17874 0.251815 0.826909 -0.502804 95 90 74 
-0.500736 0.598766 -3.18479 -0.0380051 0.764223 -0.643832 102 96 79 
-0.520269 0.593098 -3.18414 0.339732 0.815986 -0.467706 109 105 90 
-0.527553 0.589994 -3.19215 -0.347821 0.790534 -0.50406 108 103 89 
-0.520176 0.59947 -3.18833 -0.161015 0.726482 -0.668055 104 99 84 
0.227502 0.592964 -2.99683 -0.0717745 0.630627 -0.77276 95 89 74 
0.228371 0.592844 -2.99708 -0.26337 0.710305 -0.652765 98 91 74 
0.21852 0.58829 -2.9999 -0.465643 0.61782 -0.633621 99 90 72 
0.0783421 0.494992 -2.99649 0.272157 0.952664 0.135509 100 91 70 
0.0687255 0.501935 -3.00358 0.0744044 0.96131 -0.26523 104 95 73 
0.0679112 0.502019 -3.00384 0.123636 0.946148 -0.299197 103 94 72 
0.0606708 0.498289 -3.00757 0.0959736 0.943517 -0.31712 98 88 68 
0.0429802 0.4992 -3.00694 -0.145929 0.835531 -0.529711 95 85 65 
0.033774 0.494118 -3.01 -0.300842 0.787736 -0.537556 104 94 71 
0.0246158 0.48726 -3.01255 -0.378365 0.783725 -0.49256 102 92 70 
0.0133062 0.482569 -3.01217 -0.472808 0.83062 -0.294149 120 107 82 
-0.203782 0.410109 -3.03793 -0.0852927 0.976521 -0.197817 99 85 55 
-0.195769 0.411952 -3.03305 0.060418 0.996326 -0.0607036 109 95 61 
-0.195628 0.411848 -3.03344 -0.0409724 0.984143 -0.172582 109 94 62 
-0.204637 0.410063 -3.03798 -0.131643 0.960386 -0.245621 99 85 55 
-0.219828 0.401382 -3.03909 -0.573835 0.807597 -0.13602 99 86 63 
-0.228366 0.399497 -3.04388 -0.149246 0.981142 -0.122826 74 62 38 
-0.227389 0.402269 -3.04294 -0.286818 0.956446 -0.0542818 85 73 48 
-0.237457 0.399636 -3.03873 0.137046 0.990052 0.0318743 68 55 30 
-0.246214 0.402292 -3.04377 0.302763 0.937143 0.173485 74 62 42 
-0.254739 0.404672 -3.04842 0.808117 0.5864 -0.0555146 74 65 47 
-0.262818 0.409828 -3.04985 0.444798 0.810294 -0.381549 81 72 52 
-0.271345 0.417477 -3.05786 0.0160118 0.992762 -0.119026 86 74 51 
-0.271776 0.602924 -3.14064 0.706709 0.543643 -0.452786 71 65 52 
-0.279598 0.61171 -3.14129 0.505801 0.635418 -0.583445 60 56 45 
-0.287659 0.611681 -3.14803 0.374757 0.731828 -0.569197 74 68 55 
-0.295963 0.618383 -3.14617 0.110283 0.77356 -0.624054 73 68 55 
-0.442218 0.523509 -3.14316 0.90494 0.422455 0.0511361 114 103 81 
-0.441564 0.528161 -3.1464 0.834631 0.407359 0.370742 105 95 74 
-0.440941 0.539389 -3.15636 0.760407 0.649162 0.0192176 97 88 68 
-0.448021 0.553711 -3.16454 0.858148 0.47649 0.191152 61 55 43 
-0.447268 0.548024 -3.15648 0.718763 0.679671 0.146378 82 74 57 
-0.45284 0.563365 -3.16448 0.918428 0.394778 0.0253106 74 68 53 
-0.458688 0.569433 -3.17439 0.749555 0.635085 -0.186641 82 75 59 
-0.461431 0.574876 -3.17543 0.756751 0.646987 -0.0934639 85 77 61 
-0.464562 0.578203 -3.17453 0.704659 0.708848 -0.0314629 85 78 62 
-0.469015 0.580167 -3.18282 0.371925 0.909451 -0.185933 91 85 67 
-0.475202 0.586631 -3.17884 0.640882 0.681447 -0.353412 86 79 64 
-0.483107 0.585185 -3.18918 0.269689 0.962712 0.0212878 94 87 70 
-0.494275 0.589356 -3.18808 0.133929 0.86974 -0.47499 100 94 77 
-0.508266 0.593272 -3.19479 -0.0477836 0.813785 -0.579198 98 92 77 
-0.528007 0.583519 -3.20059 -0.320762 0.803071 -0.502184 114 107 91 
-0.518937 0.589129 -3.19841 -0.123183 0.757277 -0.641372 100 93 79 
0.111989 0.474989 -2.99581 0.721014 0.575302 0.38622 106 95 74 
0.0788599 0.495542 -3.00664 0.168219 0.97175 0.165545 115 103 79 
0.0689805 0.497629 -3.01259 -0.0218586 0.935514 -0.352612 112 101 77 
0.0526489 0.49636 -3.01191 0.0240612 0.887765 -0.459669 102 91 67 
0.0612044 0.4947 -3.01663 -0.018742 0.96487 -0.26206 114 102 76 
0.0430761 0.493058 -3.01604 -0.219186 0.850847 -0.477511 108 96 72 
0.0340539 0.486758 -3.01935 -0.381648 0.769109 -0.512657 112 100 77 
-0.220177 0.399025 -3.04862 -0.386381 0.904274 -0.181654 78 64 37 
-0.229307 0.396203 -3.05369 -0.095036 0.994125 -0.0517971 36 29 16 
-0.237466 0.39991 -3.04917 0.174634 0.981986 0.0721532 45 36 20 
-0.246504 0.403646 -3.05324 0.640293 0.679099 0.358954 51 44 30 
-0.246384 0.401976 -3.05432 0.529126 0.848002 0.0303125 48 42 29 
-0.257534 0.409002 -3.05665 0.365658 0.884686 -0.289179 64 57 41 
-0.264055 0.413326 -3.06256 0.285767 0.958116 -0.0187116 52 45 31 
-0.279582 0.605463 -3.1496 0.46412 0.70482 -0.53649 70 64 52 
-0.296304 0.610909 -3.15429 0.286734 0.685865 -0.668859 71 67 55 
-0.442468 0.546046 -3.16495 0.61579 0.767574 0.177856 71 65 49 
-0.438309 0.533725 -3.16466 0.925056 0.371982 0.0768234 93 84 65 
-0.444715 0.549411 -3.17453 0.835125 0.543908 0.0820392 81 74 57 
-0.450078 0.558982 -3.17457 0.9355 0.353132 0.0117151 79 72 55 
-0.455357 0.567384 -3.17544 0.766185 0.624804 -0.150269 83 77 61 
-0.459097 0.570338 -3.18383 0.790479 0.609281 -0.0626061 93 85 66 
-0.462584 0.57232 -3.18272 0.580775 0.811933 -0.0588663 92 84 66 
-0.466206 0.576141 -3.18375 0.395096 0.914071 -0.091511 92 84 67 
-0.474365 0.581253 -3.19339 0.356429 0.934259 -0.0108486 98 88 67 
-0.482171 0.580425 -3.19685 0.203839 0.960425 0.189828 101 91 71 
-0.491531 0.588688 -3.19406 0.320793 0.773046 -0.547259 97 89 71 
-0.499839 0.592207 -3.19956 -0.0288066 0.977691 -0.208064 102 94 75 
-0.51646 0.583017 -3.20694 -0.15281 0.736554 -0.658891 108 100 82 
-0.508036 0.588653 -3.20359 -0.0476218 0.954103 -0.295668 105 97 79 
-0.54058 0.569286 -3.20075 -0.359861 0.808332 -0.465939 116 110 94 
0.109328 0.481981 -3.00593 0.614352 0.75893 0.215865 103 93 71 
0.101915 0.487167 -3.01084 0.533678 0.732362 0.422887 102 90 66 
0.0944845 0.489643 -3.00736 0.474712 0.866906 0.152059 110 97 73 
0.0939651 0.489412 -3.01588 0.256728 0.953035 0.160672 120 107 82 
0.0869852 0.494765 -3.01145 0.418114 0.882798 0.214122 118 105 80 
0.0777666 0.495461 -3.01711 0.0502641 0.997752 -0.044332 122 109 84 
0.0695171 0.493433 -3.02122 -0.0466089 0.983834 -0.17291 121 109 83 
0.0528868 0.490904 -3.0207 -0.128272 0.938605 -0.320262 118 106 80 
0.0609276 0.492007 -3.02634 -0.130531 0.984179 -0.119804 116 104 80 
0.04549 0.487682 -3.02545 -0.230072 0.96234 -0.144804 115 104 79 
0.0340465 0.481641 -3.02909 -0.328507 0.840114 -0.431616 109 99 76 
0.0251008 0.481359 -3.02281 -0.345703 0.832603 -0.432737 110 99 76 
0.00709518 0.465493 -3.03028 -0.359906 0.824901 -0.435896 104 92 69 
-0.239094 0.395564 -3.05795 0.0264778 0.99801 -0.0572306 38 33 23 
-0.228744 0.397472 -3.06422 -0.232645 0.963483 0.132579 27 26 19 
-0.258318 0.404342 -3.0659 0.512271 0.799495 -0.313666 45 36 20 
-0.264754 0.589204 -3.15026 0.742325 0.539778 -0.39698 71 65 52 
-0.271922 0.59819 -3.14948 0.577942 0.651961 -0.490846 68 62 50 
-0.280287 0.599598 -3.15563 0.522849 0.709048 -0.47316 71 66 54 
-0.291508 0.60656 -3.15819 0.261528 0.693782 -0.671021 72 67 55 
-0.311598 0.600106 -3.16813 -0.121011 0.681987 -0.721284 84 80 65 
-0.43921 0.540266 -3.17451 0.949476 0.274498 0.152139 80 72 55 
-0.447389 0.553782 -3.18355 0.820308 0.568864 0.0590584 86 79 61 
-0.456706 0.564653 -3.19196 0.600818 0.780356 0.173389 94 86 66 
-0.464205 0.570926 -3.19198 0.495936 0.860505 0.116527 98 88 66 
-0.466347 0.576757 -3.19781 0.559413 0.790378 0.24972 105 93 69 
-0.474421 0.578595 -3.20246 0.27111 0.962103 0.0292821 108 96 72 
-0.482415 0.580279 -3.20676 0.0833435 0.965761 0.245682 110 98 74 
-0.482865 0.581193 -3.19869 0.16403 0.971488 0.171191 103 92 72 
-0.491066 0.586386 -3.20313 0.158981 0.941046 -0.298593 107 96 74 
-0.491537 0.587329 -3.20376 0.107398 0.983932 -0.142634 109 97 75 
-0.499525 0.584951 -3.20783 0.0198316 0.973668 -0.227107 111 99 78 
-0.507455 0.581838 -3.2118 -0.0256117 0.968439 -0.247932 111 102 81 
-0.507599 0.581576 -3.21187 0.0279963 0.967275 -0.252183 111 102 81 
-0.524024 0.578024 -3.21508 -0.384259 0.855361 -0.347422 115 106 85 
-0.528631 0.576664 -3.20893 -0.388793 0.828453 -0.40312 115 109 92 
0.124154 0.466139 -3.00673 0.738474 0.54043 0.403225 116 105 85 
0.116088 0.475289 -3.00973 0.485625 0.739373 0.466365 102 90 69 
0.109583 0.48428 -3.01654 0.314911 0.939542 0.134503 100 87 63 
0.109323 0.484303 -3.01528 0.392096 0.892336 0.223602 100 87 63 
0.101883 0.488876 -3.02106 0.260621 0.933144 0.247625 119 108 84 
0.10173 0.487266 -3.01966 0.288761 0.951629 0.104975 117 105 81 
0.0940694 0.49146 -3.02521 0.0942786 0.984076 0.150683 120 109 85 
0.0866954 0.492345 -3.03041 0.0604742 0.997999 -0.0184738 126 114 88 
0.0785608 0.49086 -3.02543 0.276637 0.916142 0.290096 119 107 83 
0.0710802 0.491544 -3.0313 -0.107246 0.983189 -0.147776 124 111 86 
0.061517 0.489606 -3.03491 -0.22274 0.953061 -0.205092 116 105 81 
0.0455551 0.484702 -3.03505 -0.259248 0.889766 -0.375641 111 100 76 
0.0334067 0.493152 -3.0443 -0.271112 0.864739 -0.42276 101 90 68 
0.0359223 0.480185 -3.03844 -0.221116 0.835427 -0.503159 110 99 74 
0.0265385 0.476991 -3.0332 -0.281166 0.828902 -0.483597 106 96 72 
0.0356307 0.480864 -3.03901 -0.203299 0.873376 -0.442588 110 99 74 
0.0273385 0.483885 -3.04109 0.462856 0.831851 -0.306249 100 90 68 
0.0253074 0.47727 -3.03277 -0.602113 0.750615 -0.272098 104 95 72 
0.0163451 0.466753 -3.03739 -0.413935 0.815538 -0.40442 105 93 68 
-0.100616 0.620244 -3.12913 -0.522203 0.593608 -0.612318 85 80 66 
-0.271444 0.591905 -3.15803 0.585283 0.567365 -0.579259 66 61 50 
-0.278378 0.593512 -3.16323 0.525473 0.755165 -0.391923 70 65 52 
-0.291688 0.598887 -3.16668 0.118689 0.763934 -0.634286 67 63 51 
-0.300945 0.597577 -3.17226 0.123748 0.738896 -0.662359 73 68 56 
-0.434926 0.529056 -3.17514 0.947986 0.275672 0.159146 83 75 57 
-0.441228 0.545541 -3.18357 0.800329 0.565602 0.198917 81 74 57 
-0.441567 0.546092 -3.18368 0.807712 0.554531 0.20024 81 74 57 
-0.443002 0.551617 -3.19192 0.716557 0.649132 0.25529 88 80 62 
-0.452341 0.561913 -3.2001 0.590061 0.760406 0.271312 96 87 69 
-0.449434 0.558787 -3.19191 0.73525 0.665487 0.128588 89 81 63 
-0.457145 0.569815 -3.20313 0.566631 0.815826 0.115577 91 82 65 
-0.46574 0.573926 -3.20743 0.290721 0.919702 0.263875 114 102 79 
-0.47433 0.578828 -3.21333 0.320724 0.946915 -0.0221041 117 106 81 
-0.48235 0.580298 -3.21777 0.0718135 0.978565 0.193011 125 112 85 
-0.490983 0.582312 -3.21215 0.0710969 0.992039 -0.10394 119 106 80 
-0.499196 0.58133 -3.21674 0.0791253 0.989273 -0.122797 122 110 86 
-0.514014 0.577568 -3.21706 -0.0572201 0.998265 -0.0138607 121 110 86 
-0.506303 0.579214 -3.22156 -0.0958714 0.9944 0.0444748 125 112 87 
-0.518236 0.577091 -3.22287 -0.326011 0.901901 -0.283356 124 112 88 
-0.526787 0.573508 -3.22258 -0.564903 0.735943 -0.373193 117 108 88 
-0.534769 0.568004 -3.22248 -0.563635 0.735284 -0.376395 107 99 83 
0.117629 0.481662 -3.02268 0.568506 0.709764 0.415975 101 88 63 
0.109596 0.486789 -3.02577 0.426249 0.820502 0.380905 120 109 83 
0.0967986 0.492832 -3.03622 0.0438593 0.997372 0.0576661 119 107 83 
0.0789702 0.491927 -3.03589 -0.264061 0.960787 -0.0846155 127 114 89 
0.0876455 0.493077 -3.04102 -0.106492 0.994164 0.0172415 124 111 87 
0.0709497 0.490077 -3.04086 -0.25767 0.958477 -0.122183 122 111 86 
0.0617273 0.487782 -3.04508 -0.234461 0.963274 -0.130888 122 111 84 
0.0530123 0.486753 -3.03969 -0.150295 0.946022 -0.287148 118 107 82 
0.00699093 0.458809 -3.04094 -0.268495 0.73961 -0.61716 83 73 54 
-0.0029552 0.455983 -3.0446 -0.237467 0.605434 -0.759644 78 70 52 
-0.0819413 0.623402 -3.13297 -0.161885 0.676203 -0.718709 86 81 68 
-0.0913972 0.618027 -3.13596 -0.395581 0.685622 -0.611097 89 83 69 
-0.101018 0.611701 -3.13806 -0.509618 0.623437 -0.592973 86 78 64 
-0.100549 0.612455 -3.13765 -0.488031 0.656124 -0.57561 86 79 66 
-0.262119 0.577944 -3.16582 0.500878 0.752106 -0.42832 71 65 51 
-0.27014 0.583974 -3.16599 0.510213 0.697078 -0.503751 62 57 46 
-0.276878 0.586579 -3.17095 0.500737 0.698435 -0.511322 67 62 51 
-0.29144 0.592436 -3.17583 0.12701 0.742215 -0.658016 67 63 52 
-0.300821 0.591269 -3.18111 0.101818 0.841239 -0.53099 52 48 39 
-0.326375 0.584926 -3.1869 -0.310085 0.822716 -0.476431 70 62 48 
-0.432568 0.531394 -3.19166 0.0922949 0.672691 -0.734144 75 68 51 
-0.4358 0.545362 -3.19196 0.594739 0.803557 0.024137 84 76 58 
-0.44566 0.555147 -3.20012 0.74422 0.640061 0.19094 87 79 63 
-0.447581 0.560074 -3.20887 0.613038 0.753148 0.238646 102 93 73 
-0.457282 0.571958 -3.21273 0.565438 0.805707 0.176397 117 106 84 
-0.465805 0.57581 -3.21759 0.280635 0.950076 0.13638 120 108 84 
-0.466518 0.576226 -3.21801 0.532447 0.836485 -0.129589 120 108 84 
-0.474244 0.580315 -3.22253 0.112744 0.95639 0.269457 128 115 89 
-0.490617 0.581076 -3.22195 -0.0981427 0.994777 0.0280379 131 117 90 
-0.482392 0.58071 -3.22687 -0.0566018 0.995144 0.080527 133 119 90 
-0.482013 0.580859 -3.22724 0.00572875 0.998046 0.0622237 133 119 91 
-0.49819 0.580382 -3.22656 -0.262166 0.949217 0.173943 126 112 87 
-0.490369 0.582135 -3.23069 0.0167433 0.98694 0.160218 129 115 88 
-0.505517 0.578086 -3.23127 -0.183235 0.983022 0.00960369 127 114 89 
-0.513643 0.576956 -3.22622 -0.218092 0.975699 0.0211752 129 116 90 
-0.52088 0.573301 -3.23071 -0.519369 0.846734 -0.115313 126 115 92 
0.289004 0.544201 -3.01733 0.756178 0.647976 -0.0912211 83 79 66 
0.287297 0.548708 -3.01077 0.836073 0.537286 -0.11093 73 68 59 
0.283895 0.551936 -3.01709 0.706054 0.615301 -0.350559 84 79 66 
0.236236 0.56364 -3.03162 -0.507931 0.747761 -0.427621 97 91 75 
0.129756 0.476259 -3.03259 0.65003 0.588461 0.480806 121 111 88 
0.117145 0.488124 -3.04032 0.521518 0.853159 0.0117492 130 118 93 
0.120977 0.482672 -3.03257 0.575395 0.778374 0.251108 125 115 91 
0.109528 0.489175 -3.03526 0.334822 0.920646 0.200761 127 115 90 
0.106237 0.491914 -3.04196 0.204553 0.947021 0.247609 128 116 90 
0.0970342 0.492507 -3.04682 -0.117004 0.988924 0.0913257 121 108 83 
0.0788693 0.491763 -3.04589 -0.180887 0.982807 -0.0370356 127 114 88 
0.0697109 0.490419 -3.05017 -0.256138 0.958166 -0.127715 107 96 73 
0.0527307 0.485998 -3.04964 -0.240207 0.966254 -0.0930251 116 104 79 
0.0451352 0.481598 -3.05483 -0.382347 0.902385 -0.198775 100 90 68 
0.0474279 0.477528 -3.04591 -0.522598 0.692785 -0.496931 109 98 74 
0.0266991 0.470964 -3.05303 0.0377941 0.897191 -0.440022 77 69 51 
-0.00994937 0.552226 -3.09911 0.512168 0.644347 0.567892 123 111 90 
-0.0817558 0.615629 -3.14102 -0.222481 0.739334 -0.635522 88 82 69 
-0.0906288 0.609221 -3.14353 -0.174467 0.736845 -0.653162 83 77 64 
-0.100368 0.605272 -3.14625 -0.454112 0.716236 -0.529895 94 86 70 
-0.253626 0.569756 -3.16873 0.571487 0.800518 -0.180483 71 65 52 
-0.26157 0.57264 -3.17439 0.520512 0.727589 -0.446858 80 73 57 
-0.260895 0.572602 -3.174 0.511448 0.726066 -0.459619 81 74 58 
-0.268807 0.579766 -3.17352 0.584998 0.642608 -0.494805 72 66 52 
-0.276737 0.580802 -3.1796 0.43143 0.73047 -0.529417 77 72 56 
-0.285204 0.585697 -3.17787 0.336108 0.688224 -0.642945 69 64 51 
-0.291202 0.585801 -3.18454 0.202801 0.777059 -0.595862 72 66 54 
-0.300829 0.585361 -3.19023 0.139419 0.829229 -0.54124 77 72 58 
-0.309685 0.587035 -3.18569 -0.0488688 0.808038 -0.587101 80 74 60 
-0.317882 0.584551 -3.19152 -0.0718203 0.948151 -0.3096 78 71 55 
-0.325621 0.580892 -3.19534 0.00188351 0.999902 -0.01386 95 85 64 
-0.434158 0.544812 -3.20957 0.77846 0.592805 0.206354 84 76 59 
-0.430468 0.544391 -3.2021 0.700647 0.683382 0.205141 79 72 55 
-0.441025 0.551834 -3.20887 0.745673 0.618162 0.24869 92 84 66 
-0.44236 0.556867 -3.21811 0.808862 0.569915 0.144705 96 89 69 
-0.449684 0.565506 -3.2172 0.564123 0.795811 0.220114 105 96 76 
-0.457195 0.572816 -3.22259 0.421949 0.890902 0.168084 115 104 82 
-0.465768 0.578107 -3.22658 0.289486 0.945241 0.150725 122 110 86 
-0.473812 0.58051 -3.23205 0.24925 0.967039 -0.0520571 124 112 87 
-0.482351 0.581294 -3.236 -0.0385237 0.999219 0.0087885 132 118 90 
-0.490262 0.581703 -3.24018 -0.202906 0.976501 0.0726318 127 114 88 
-0.497881 0.579809 -3.23576 -0.21783 0.974789 0.0483338 128 115 89 
-0.507238 0.577088 -3.24366 -0.173822 0.984208 0.0334608 128 113 86 
-0.513359 0.575737 -3.23553 -0.36747 0.928056 -0.0606485 130 118 93 
-0.518204 0.573104 -3.23671 -0.532441 0.835303 -0.137019 123 112 89 
-0.525909 0.567849 -3.23678 -0.538688 0.809542 -0.23336 113 104 86 
0.294475 0.53914 -3.01738 0.583963 0.809361 -0.0626243 86 81 68 
0.294335 0.539132 -3.01741 0.586944 0.806862 -0.0668549 86 81 68 
0.291204 0.539949 -3.02383 0.719682 0.694267 -0.00713823 70 65 54 
0.285403 0.546891 -3.02386 0.646877 0.714143 -0.267489 83 78 64 
0.281988 0.549451 -3.03072 0.565489 0.581192 -0.585182 77 71 59 
0.258044 0.556914 -3.03877 0.244001 0.850677 -0.465631 92 86 70 
0.242922 0.558263 -3.03805 -0.449667 0.79951 -0.398224 91 86 70 
0.125086 0.483062 -3.04034 0.565601 0.788959 0.240082 124 114 90 
0.121292 0.489754 -3.04794 0.300958 0.950604 0.0759996 133 121 96 
0.104341 0.493891 -3.05208 -0.0337799 0.989298 0.141942 122 111 86 
0.0955668 0.492887 -3.05615 -0.08136 0.996671 -0.00521983 119 108 85 
0.0874026 0.49245 -3.05116 -0.207737 0.973036 -0.100229 131 119 92 
0.078419 0.490724 -3.05552 -0.200709 0.960063 -0.194924 119 108 84 
0.0707927 0.486098 -3.06052 -0.300314 0.869333 -0.39252 112 101 77 
0.0630959 0.483483 -3.05577 -0.340046 0.843011 -0.416774 110 99 76 
0.0652831 0.49556 -3.06754 -0.209576 0.957794 -0.196744 107 96 72 
0.0531708 0.480507 -3.05873 -0.603203 0.73951 -0.298784 108 97 72 
0.0503846 0.489602 -3.06128 -0.67521 0.672983 -0.301969 112 100 76 
0.0388259 0.48634 -3.06236 -0.191086 0.929562 -0.315279 70 64 48 
-0.00589181 0.557598 -3.11095 0.486128 0.728658 0.482429 112 103 84 
-0.00463119 0.552566 -3.10497 0.505515 0.6408 0.57778 135 123 103 
-0.0103484 0.564348 -3.11165 0.604161 0.665438 0.438385 95 86 70 
-0.0818332 0.608673 -3.14927 -0.136727 0.87036 -0.473054 87 81 67 
-0.100579 0.604524 -3.14647 -0.429542 0.766146 -0.478031 94 86 71 
-0.253757 0.568021 -3.17779 0.320583 0.937067 -0.138316 81 73 56 
-0.261568 0.569428 -3.18336 0.384269 0.868877 -0.312075 82 74 58 
-0.269338 0.573488 -3.18195 0.328533 0.832249 -0.446572 69 64 50 
-0.282818 0.577327 -3.18618 0.292874 0.761052 -0.578813 72 66 53 
-0.290917 0.577476 -3.19314 0.249707 0.769403 -0.587932 78 73 57 
-0.309588 0.582657 -3.19595 0.0552491 0.908455 -0.414316 87 79 61 
-0.317308 0.579959 -3.20002 0.0729985 0.981954 -0.174465 97 87 66 
-0.316957 0.579685 -3.20011 0.166114 0.96592 -0.198505 97 87 67 
-0.325447 0.58013 -3.20497 0.0743308 0.997134 0.014131 80 78 59 
-0.436286 0.547689 -3.21796 0.820371 0.510756 0.257136 91 83 65 
-0.44378 0.561801 -3.22745 0.675054 0.666892 0.315528 89 81 63 
-0.450602 0.568899 -3.22739 0.561596 0.8155 0.139888 103 95 75 
-0.453762 0.572787 -3.23582 0.411064 0.864422 0.289483 108 99 77 
-0.462378 0.57594 -3.2389 0.20324 0.947119 0.248312 114 104 80 
-0.471542 0.578261 -3.24351 0.0600285 0.988052 0.141947 127 116 90 
-0.499798 0.578882 -3.24922 -0.30126 0.949928 -0.082941 126 105 70 
-0.512732 0.573549 -3.24472 -0.456638 0.885901 -0.0816211 126 115 92 
-0.520915 0.568502 -3.24467 -0.514718 0.829737 -0.215874 118 109 91 
-0.661117 0.446635 -3.24194 -0.134063 0.87055 -0.473467 156 156 154 
0.314858 0.518361 -3.0158 0.477402 0.816087 0.325715 117 105 84 
0.3025 0.52993 -3.02411 0.673953 0.720751 0.16219 97 90 73 
0.307565 0.522636 -3.0239 0.517631 0.813497 0.265106 101 92 75 
0.296442 0.53395 -3.02377 0.707821 0.705337 0.0385816 87 82 68 
0.287604 0.542556 -3.03051 0.60688 0.783513 -0.13343 70 64 54 
0.293903 0.536708 -3.03039 0.709952 0.702773 0.0455898 79 73 61 
0.283475 0.542753 -3.03713 0.653942 0.639482 -0.404256 84 78 65 
0.264967 0.551422 -3.04221 0.375972 0.845633 -0.37888 81 75 62 
0.257401 0.551341 -3.0469 0.151465 0.910561 -0.384627 93 87 70 
0.249815 0.554702 -3.04324 0.0100813 0.941058 -0.338094 98 91 74 
0.24199 0.552249 -3.04698 -0.162361 0.935371 -0.314199 106 97 79 
0.227598 0.54886 -3.05018 -0.500928 0.853499 -0.143564 124 108 78 
0.219092 0.548516 -3.05434 -0.380288 0.921519 -0.0786404 139 121 87 
0.138709 0.48526 -3.05429 0.30082 0.905795 0.2984 130 118 94 
0.123029 0.490945 -3.05353 0.308763 0.933648 0.18157 130 117 91 
0.113062 0.492875 -3.05707 0.000551432 0.996153 -0.0876291 131 118 92 
0.104481 0.492986 -3.06169 -0.0253501 0.997631 -0.063954 135 123 97 
0.0959939 0.49128 -3.06639 -0.154348 0.985554 -0.0697201 125 114 90 
0.0873051 0.490606 -3.06095 -0.199637 0.960681 -0.192971 115 104 80 
0.079955 0.486662 -3.06617 -0.343124 0.910546 -0.230592 118 107 82 
0.0567135 0.492048 -3.0722 -0.46176 0.882578 0.0885062 77 69 52 
0.0398053 0.488008 -3.07488 -0.187233 0.940744 -0.282744 31 28 24 
0.00648308 0.551907 -3.11627 0.486452 0.722565 0.491187 124 114 95 
0.00038642 0.552525 -3.11093 0.50994 0.622977 0.593179 131 121 101 
-0.00056319 0.558266 -3.11864 0.508932 0.772666 0.379442 113 104 85 
-0.00631668 0.565752 -3.11883 0.648043 0.581353 0.492006 102 93 76 
-0.00787047 0.56774 -3.12475 0.682717 0.587243 0.434791 98 89 73 
-0.100547 0.598793 -3.15535 -0.456103 0.753332 -0.473773 92 84 70 
-0.245578 0.56458 -3.18175 0.279885 0.943059 -0.179734 84 75 58 
-0.253568 0.565477 -3.18716 0.253256 0.916923 -0.308403 83 76 59 
-0.269876 0.568244 -3.19063 0.267017 0.893111 -0.362016 57 53 43 
-0.274068 0.571291 -3.18929 0.283883 0.794716 -0.536505 60 57 46 
-0.282436 0.571453 -3.1961 0.385525 0.803197 -0.454141 83 75 56 
-0.290754 0.571968 -3.20261 0.449586 0.809823 -0.376907 86 78 60 
-0.300468 0.578863 -3.1994 0.203918 0.880702 -0.42753 85 76 60 
-0.309311 0.578521 -3.20466 0.115496 0.933599 -0.339194 94 84 65 
-0.31727 0.577648 -3.2093 0.160989 0.96257 -0.218041 61 59 43 
-0.325479 0.578316 -3.21434 0.163932 0.96487 -0.20531 59 62 48 
-0.430431 0.546741 -3.2275 0.827064 0.537181 0.165534 84 76 59 
-0.438397 0.56056 -3.23607 0.669356 0.701118 0.245755 103 94 75 
-0.437407 0.553716 -3.22702 0.782655 0.569033 0.252294 94 86 67 
-0.445792 0.567151 -3.23597 0.617286 0.772708 0.14792 109 99 78 
-0.462439 0.578425 -3.24889 0.112346 0.989779 0.0878434 118 107 83 
-0.471382 0.579539 -3.2538 -0.0273813 0.999601 0.00695944 131 120 94 
-0.480044 0.581249 -3.24918 -0.123762 0.983276 -0.133607 129 117 92 
-0.482944 0.582976 -3.25662 -0.141355 0.989882 -0.012335 123 108 82 
-0.491265 0.582059 -3.26108 -0.171339 0.983732 -0.0539885 129 116 91 
-0.490962 0.581928 -3.25186 -0.378563 0.919421 -0.106558 135 122 95 
-0.507212 0.574157 -3.25282 -0.465216 0.848651 -0.251726 125 113 89 
-0.499945 0.577239 -3.25873 -0.379743 0.901303 -0.208441 124 110 85 
-0.510195 0.570069 -3.26091 -0.50151 0.823095 -0.266463 116 107 88 
-0.51535 0.568746 -3.25271 -0.528028 0.794945 -0.298746 119 109 91 
0.330192 0.509706 -3.02279 0.432073 0.896555 0.0974807 114 105 84 
0.32121 0.514934 -3.02027 0.381017 0.903014 0.198474 116 107 87 
0.314483 0.518681 -3.02394 0.360551 0.915169 0.180192 109 99 80 
0.311661 0.520973 -3.03054 0.39559 0.813375 0.426532 90 83 68 
0.305442 0.526848 -3.03072 0.62887 0.660507 0.410186 83 75 62 
0.301454 0.528106 -3.03749 0.661381 0.749728 -0.0219764 91 84 69 
0.301973 0.527658 -3.03724 0.656796 0.753827 -0.0190755 92 84 70 
0.299041 0.531403 -3.03073 0.689047 0.718575 -0.0941576 93 87 71 
0.289708 0.537921 -3.03727 0.563188 0.79464 -0.226641 84 79 65 
0.289632 0.538164 -3.03722 0.569092 0.79154 -0.222705 84 78 65 
0.29548 0.533696 -3.03756 0.620139 0.768803 -0.156108 86 80 66 
0.296239 0.532845 -3.03724 0.674171 0.734287 -0.0794699 86 80 66 
0.295165 0.532757 -3.03738 0.558471 0.778238 -0.287152 86 80 66 
0.285254 0.53915 -3.04436 0.456688 0.803599 -0.381661 83 77 64 
0.285052 0.539381 -3.04433 0.44458 0.80833 -0.385943 83 77 63 
0.272343 0.546647 -3.04556 0.343916 0.872622 -0.346776 84 78 64 
0.264747 0.547191 -3.05048 0.283172 0.921448 -0.265983 92 85 70 
0.249367 0.549886 -3.0513 0.0740926 0.967651 -0.241167 100 92 75 
0.255383 0.546153 -3.05625 0.0985549 0.922131 -0.374113 103 95 78 
0.241291 0.548542 -3.05573 0.00890836 0.985939 -0.166871 118 108 86 
0.228139 0.552492 -3.06129 -0.320843 0.932294 0.166993 131 118 92 
0.217521 0.542012 -3.06334 -0.189632 0.966185 -0.174717 136 121 94 
0.208095 0.537518 -3.05799 -0.483846 0.861614 0.153342 152 136 106 
0.146375 0.479994 -3.05984 -0.175212 0.800697 0.572874 127 116 92 
0.138707 0.487722 -3.06322 0.253382 0.930561 0.264298 118 105 82 
0.130832 0.491729 -3.06761 0.218516 0.932326 0.288129 127 115 90 
0.130759 0.488627 -3.05867 0.409119 0.819779 0.40073 120 108 84 
0.122346 0.494317 -3.07219 0.0115869 0.952851 0.303218 133 121 94 
0.123158 0.49263 -3.06289 0.161141 0.980765 0.110155 117 104 81 
0.112689 0.493036 -3.06644 -0.04524 0.995592 -0.082156 130 118 92 
0.103877 0.492962 -3.07116 -0.137955 0.981937 -0.129489 117 105 82 
0.0962116 0.489697 -3.07623 -0.328038 0.940063 -0.0931305 115 102 79 
0.0870522 0.489793 -3.07053 -0.117233 0.983647 -0.136732 117 106 82 
0.0787227 0.487942 -3.07529 -0.103929 0.976395 0.189346 114 103 77 
0.0564993 0.489094 -3.08277 0.124507 0.902971 -0.411269 51 46 36 
0.0127319 0.550726 -3.12158 0.48659 0.772352 0.408292 114 105 85 
0.0110253 0.55324 -3.12427 0.42957 0.831086 0.353222 104 95 77 
0.00495431 0.554539 -3.12377 0.475851 0.805117 0.354052 102 94 76 
-0.00161655 0.559157 -3.12623 0.456057 0.802208 0.385325 107 98 79 
-0.00979358 0.571329 -3.13187 0.770593 0.59498 0.228441 93 85 67 
-0.253619 0.561969 -3.19617 0.410939 0.858479 -0.306828 75 69 54 
-0.261769 0.563015 -3.19346 0.384192 0.807655 -0.447313 79 73 58 
-0.264623 0.563113 -3.20193 0.168673 0.836295 -0.52169 84 76 59 
-0.273882 0.566853 -3.19797 0.329889 0.801881 -0.498157 79 72 54 
-0.282391 0.566579 -3.20603 0.50408 0.73533 -0.452983 81 75 58 
-0.291549 0.567492 -3.21136 0.46353 0.830168 -0.309778 85 78 60 
-0.300717 0.574424 -3.20825 0.294385 0.881421 -0.36937 81 72 56 
-0.308912 0.574648 -3.21337 0.217537 0.941622 -0.256954 63 58 45 
-0.317191 0.575263 -3.21851 0.188194 0.953015 -0.237373 41 46 36 
-0.325501 0.576443 -3.2237 0.195852 0.953746 -0.228058 64 63 49 
-0.432548 0.551046 -3.23584 0.760238 0.611209 0.220142 83 76 59 
-0.433652 0.557097 -3.24494 0.79192 0.561121 0.240844 97 90 71 
-0.44039 0.564462 -3.24456 0.628892 0.739096 0.241312 105 96 76 
-0.447699 0.569097 -3.24654 0.497129 0.846943 0.18855 118 107 83 
-0.462126 0.580065 -3.25928 0.162476 0.984938 0.0591549 116 105 81 
-0.471659 0.579384 -3.26351 -0.105709 0.981749 -0.158097 127 115 88 
-0.48298 0.582541 -3.26594 -0.255167 0.962683 -0.0901695 120 107 83 
-0.498023 0.575727 -3.26502 -0.449033 0.862951 -0.231702 119 108 85 
0.333822 0.50718 -3.02937 0.474643 0.870851 0.127799 103 94 76 
0.327081 0.511275 -3.02935 0.524009 0.829907 0.19149 106 96 77 
0.313908 0.518298 -3.03203 0.556371 0.798227 0.230836 90 83 67 
0.320809 0.515162 -3.03217 0.489108 0.834416 0.254014 99 90 73 
0.317845 0.516548 -3.03863 0.644882 0.752651 0.132828 94 87 71 
0.310853 0.52197 -3.03752 0.536576 0.832119 0.140232 92 84 69 
0.290638 0.533587 -3.0445 0.790304 0.551245 -0.267484 80 75 61 
0.290518 0.533725 -3.04447 0.781804 0.555962 -0.282292 80 75 61 
0.298074 0.527571 -3.04372 0.550671 0.777273 -0.304315 87 80 66 
0.285685 0.533857 -3.05165 0.52063 0.796527 -0.307392 86 80 66 
0.285507 0.533875 -3.05163 0.513407 0.799682 -0.311324 86 80 66 
0.278741 0.540121 -3.04883 0.376144 0.843997 -0.382342 83 77 64 
0.271491 0.541358 -3.05397 0.373111 0.882764 -0.285512 88 82 67 
0.262394 0.543512 -3.0581 0.246898 0.942567 -0.224966 97 89 73 
0.252148 0.541852 -3.06532 0.109941 0.993916 -0.00661342 105 97 79 
0.246517 0.54568 -3.06098 0.138186 0.983182 -0.119407 107 97 77 
0.237112 0.54505 -3.06512 0.0127484 0.998922 0.0446443 122 110 87 
0.229602 0.546427 -3.06944 -0.100835 0.986347 0.130198 131 121 97 
0.216241 0.540957 -3.07455 -0.202799 0.974096 0.100048 147 134 108 
0.207406 0.538269 -3.06992 -0.374081 0.914966 0.151331 161 148 125 
0.146651 0.488609 -3.06863 0.230312 0.938801 0.256144 125 113 89 
0.141804 0.490669 -3.07517 0.279504 0.936555 0.211525 129 116 91 
0.138672 0.48996 -3.07244 0.352455 0.869301 0.346542 131 118 91 
0.130853 0.493511 -3.07665 0.151306 0.982003 0.113032 134 120 94 
0.122634 0.493155 -3.0822 -0.213603 0.976338 -0.0337366 120 109 85 
0.122944 0.492799 -3.07211 0.0347068 0.996053 0.0817004 133 120 94 
0.112522 0.494318 -3.07628 -0.220916 0.964179 -0.146815 112 101 79 
0.103966 0.491526 -3.08091 -0.127509 0.983714 -0.12668 115 105 83 
0.0956055 0.490004 -3.08571 -0.16772 0.979939 -0.107658 110 99 76 
0.0873328 0.488232 -3.08043 -0.343034 0.926024 -0.157503 113 101 76 
0.0881765 0.486783 -3.08111 -0.286772 0.946597 -0.147366 112 100 76 
0.0343284 0.536571 -3.12176 0.531482 0.767248 0.358968 116 106 84 
0.0355234 0.531764 -3.11523 0.505958 0.70862 0.491796 129 117 95 
0.0267099 0.540455 -3.12169 0.600049 0.780248 0.176508 116 106 86 
0.0196583 0.545487 -3.12171 0.554877 0.803452 0.215817 118 108 87 
0.0176026 0.549915 -3.12881 0.308909 0.950463 -0.0345657 108 99 79 
0.0125385 0.554151 -3.13317 0.559212 0.81137 0.170181 104 95 76 
0.0113599 0.553236 -3.13323 0.496656 0.790869 0.357573 104 95 76 
0.00473111 0.557612 -3.13145 0.404077 0.834594 0.374399 106 97 78 
0.00536513 0.559135 -3.13563 0.481915 0.811515 0.330455 99 91 73 
0.00453683 0.560962 -3.13929 0.515358 0.837947 0.179585 90 82 66 
-0.00178705 0.562403 -3.1338 0.433846 0.799073 0.416245 91 82 65 
-0.00251295 0.564561 -3.14117 0.464134 0.860666 0.209368 88 80 62 
-0.244806 0.55906 -3.19961 0.234212 0.870217 -0.433436 66 61 48 
-0.255501 0.559708 -3.20582 0.196742 0.813559 -0.547188 74 67 53 
-0.264765 0.557613 -3.2113 0.167164 0.775665 -0.608605 74 68 54 
-0.274355 0.561238 -3.20743 0.276421 0.811512 -0.51482 75 67 52 
-0.283454 0.561941 -3.21493 0.428523 0.782053 -0.452505 76 71 55 
-0.300071 0.56864 -3.21676 0.41133 0.848834 -0.332095 78 71 55 
-0.300338 0.568486 -3.21738 0.425871 0.844866 -0.323783 75 70 54 
-0.308566 0.570564 -3.22227 0.396639 0.848164 -0.351134 29 33 25 
-0.30862 0.570605 -3.22237 0.390082 0.846563 -0.36217 28 33 25 
-0.317198 0.573164 -3.22785 0.25947 0.940921 -0.217584 50 50 40 
-0.411986 0.541935 -3.24322 -0.38926 0.863688 0.320186 32 33 26 
-0.419133 0.53629 -3.23963 -0.407552 0.84169 0.354203 37 36 31 
-0.435506 0.561328 -3.25353 0.75588 0.587277 0.289397 104 96 76 
-0.444869 0.57432 -3.26312 0.435802 0.88908 0.140046 122 109 86 
-0.442532 0.571488 -3.25471 0.53239 0.796846 0.285653 121 110 88 
-0.462146 0.580615 -3.26921 0.0565896 0.994442 0.0887806 124 112 85 
-0.470513 0.580441 -3.27429 -0.157357 0.985759 -0.059308 124 113 88 
-0.490782 0.577963 -3.27063 -0.427224 0.870909 -0.242894 118 106 84 
-0.483175 0.580546 -3.27643 -0.342537 0.929938 -0.133731 120 108 86 
-0.498008 0.572993 -3.27417 -0.493966 0.835948 -0.239142 117 107 86 
0.340462 0.505534 -3.03327 0.397384 0.916419 0.0475598 105 96 77 
0.324196 0.513273 -3.0388 0.560005 0.827822 0.0332528 99 91 73 
0.327062 0.512863 -3.0399 0.583636 0.803177 0.119483 95 87 70 
0.330766 0.509286 -3.03884 0.470522 0.882358 -0.00731158 92 83 68 
0.333291 0.508107 -3.03988 0.450805 0.892359 0.0217071 82 74 60 
0.320409 0.516105 -3.03977 0.585577 0.807805 0.0674576 96 89 72 
0.320372 0.514206 -3.04411 0.502964 0.860679 -0.079107 93 86 70 
0.314329 0.519383 -3.04416 0.602105 0.797724 0.0332724 81 74 61 
0.307417 0.522695 -3.04407 0.61747 0.785603 0.0394676 91 84 68 
0.304151 0.523966 -3.05064 0.506763 0.839888 -0.19437 89 83 67 
0.292648 0.528052 -3.05155 0.47775 0.854469 -0.204053 89 83 68 
0.292555 0.528156 -3.05154 0.480455 0.850205 -0.215209 89 83 68 
0.276891 0.534002 -3.06378 0.374895 0.800608 -0.467418 91 84 69 
0.282709 0.531725 -3.06172 0.291409 0.837174 -0.46284 81 74 61 
0.278457 0.535362 -3.05717 0.425444 0.828156 -0.364905 90 83 68 
0.269832 0.539003 -3.0611 0.3501 0.850116 -0.393361 96 89 72 
0.262724 0.539533 -3.06709 0.35231 0.909852 -0.219197 103 95 77 
0.265135 0.537806 -3.0692 0.340326 0.918128 -0.203022 99 92 74 
0.255702 0.541424 -3.07209 0.422251 0.886772 -0.187987 104 96 77 
0.24555 0.544468 -3.06965 0.312252 0.949399 -0.0337634 112 102 82 
0.243387 0.543385 -3.07856 0.225767 0.968508 0.10498 115 105 83 
0.23707 0.545618 -3.07392 0.133547 0.988685 0.0683186 124 113 90 
0.229471 0.547664 -3.07877 -0.156446 0.960931 0.228334 133 121 96 
0.214137 0.540845 -3.08356 -0.221238 0.963946 0.147859 139 127 102 
0.210356 0.544123 -3.08686 -0.241321 0.959545 0.145041 141 129 104 
0.20614 0.53931 -3.07808 -0.410796 0.886011 0.215014 163 151 128 
0.149283 0.489816 -3.07973 -0.196156 0.898569 0.392551 133 120 95 
0.140633 0.490738 -3.08365 0.110878 0.92613 0.360539 135 122 95 
0.131671 0.493363 -3.08792 0.0489021 0.989597 0.1353 130 118 91 
0.112583 0.492647 -3.08631 -0.251934 0.956403 -0.147726 125 113 88 
0.121084 0.49427 -3.09145 -0.266653 0.943635 -0.196083 121 109 83 
0.103807 0.490314 -3.09083 -0.0994122 0.994982 -0.0113465 122 111 86 
0.0915983 0.486427 -3.09264 -0.434687 0.900426 0.0167214 102 94 73 
0.080881 0.481086 -3.09613 0.00706175 0.832751 0.553602 88 78 60 
0.047946 0.525972 -3.12182 0.466625 0.710731 0.526425 108 98 77 
0.0407539 0.530302 -3.12172 0.569285 0.653642 0.498665 114 104 82 
0.0393722 0.534639 -3.12823 0.685017 0.68215 0.255778 99 90 71 
0.0324606 0.540012 -3.13338 0.616619 0.761084 0.201328 102 93 74 
0.0234432 0.54362 -3.12948 0.382084 0.915598 0.125271 112 102 81 
0.0182979 0.548849 -3.13329 0.640009 0.75719 0.130581 108 98 79 
0.0184095 0.55025 -3.13779 0.544324 0.838754 0.0142384 104 96 77 
0.0157339 0.552468 -3.14059 0.640123 0.746868 0.180083 103 95 76 
0.00920172 0.557844 -3.14058 0.603017 0.747953 0.277376 98 90 73 
0.00605532 0.559521 -3.1476 0.660068 0.751163 0.00795463 92 85 67 
-0.00274218 0.56242 -3.1483 0.62698 0.777428 -0.0500247 95 87 68 
-0.0100005 0.568453 -3.14852 0.581276 0.809907 -0.078546 95 88 70 
-0.0147365 0.570438 -3.15625 0.515715 0.731965 -0.445271 96 89 73 
-0.228165 0.549362 -3.2067 0.377449 0.812359 -0.444528 77 71 55 
-0.236917 0.554399 -3.20321 0.240675 0.912048 -0.332029 67 61 48 
-0.246021 0.553709 -3.20914 0.174896 0.868212 -0.464349 72 66 52 
-0.254897 0.551908 -3.21436 0.0698866 0.726144 -0.683982 74 69 56 
-0.266016 0.553199 -3.21424 0.209804 0.798349 -0.564465 67 63 50 
-0.27506 0.557493 -3.21746 0.447915 0.55899 -0.697784 69 64 51 
-0.291463 0.563354 -3.2212 0.449656 0.809893 -0.376673 65 61 48 
-0.299979 0.564329 -3.22648 0.493384 0.758638 -0.425489 52 52 41 
-0.305649 0.565631 -3.23184 0.394778 0.80803 -0.437307 43 46 37 
-0.314042 0.567911 -3.23824 0.41589 0.853482 -0.314011 43 46 36 
-0.419418 0.541637 -3.24839 -0.317885 0.870984 0.374615 46 43 35 
-0.419776 0.547489 -3.25744 -0.0729966 0.91708 0.391964 64 58 45 
-0.429258 0.555686 -3.26204 0.580254 0.760261 0.292075 106 97 78 
-0.428665 0.551228 -3.25507 0.551459 0.783289 0.28697 101 93 74 
-0.434793 0.560804 -3.2612 0.536003 0.789335 0.299417 121 109 87 
-0.438992 0.574248 -3.27246 0.552432 0.784503 0.281734 122 110 87 
-0.492693 0.574453 -3.28246 -0.531548 0.795091 -0.292039 118 108 88 
0.339523 0.505112 -3.04398 0.475812 0.879454 0.0128099 79 73 61 
0.327411 0.510765 -3.04551 0.519653 0.850686 -0.0793386 88 81 66 
0.329877 0.508363 -3.0463 0.431261 0.894407 -0.118534 84 76 62 
0.323551 0.513247 -3.04639 0.530485 0.838619 -0.123706 93 86 70 
0.325972 0.508619 -3.05309 0.545909 0.790739 -0.276976 82 76 62 
0.317332 0.516436 -3.0508 0.587827 0.792397 -0.162989 93 87 71 
0.282948 0.525894 -3.0696 0.586771 0.695955 -0.41394 90 83 68 
0.284058 0.526072 -3.06937 0.429595 0.732398 -0.528244 90 82 68 
0.269865 0.535602 -3.06946 0.477927 0.812665 -0.333408 95 87 71 
0.276029 0.530701 -3.0698 0.567716 0.740036 -0.360617 93 86 70 
0.264496 0.535345 -3.07765 0.674754 0.736236 0.0516028 89 82 66 
0.258965 0.538872 -3.082 0.464723 0.864988 -0.189284 88 81 66 
0.258243 0.539862 -3.07411 0.414518 0.891055 -0.18492 95 88 70 
0.251792 0.542972 -3.07887 0.559294 0.79647 -0.229838 98 89 71 
0.244927 0.543693 -3.08683 0.436815 0.891473 -0.120284 110 101 80 
0.236106 0.545388 -3.08326 0.259562 0.964215 0.0540052 121 111 88 
0.227573 0.54639 -3.08761 -0.0124803 0.996206 0.0861252 131 119 94 
0.218318 0.545493 -3.09232 -0.222023 0.971345 0.0848196 133 121 97 
0.199666 0.539714 -3.09406 -0.415203 0.909723 0.00317068 165 154 132 
0.167546 0.501 -3.08783 -0.635573 0.758864 0.142032 140 130 110 
0.157071 0.494633 -3.09265 -0.22342 0.919517 0.323375 108 95 69 
0.156096 0.497868 -3.08775 -0.475455 0.866063 0.154525 121 107 81 
0.148699 0.491542 -3.08835 -0.212057 0.944431 0.251163 131 118 91 
0.140248 0.492802 -3.09284 0.00431612 0.979411 0.20183 128 116 88 
0.132373 0.49321 -3.09762 -0.125852 0.927237 -0.352693 94 83 63 
0.122042 0.491844 -3.10188 -0.184825 0.917762 -0.351502 108 99 77 
0.112779 0.491786 -3.09638 -0.2421 0.969249 -0.044094 108 97 75 
0.102283 0.4935 -3.10018 -0.107506 0.989365 0.0979767 107 96 74 
0.0892549 0.487716 -3.10811 0.209699 0.833031 0.511943 71 61 46 
0.0959652 0.482572 -3.10515 0.395974 0.885702 0.242358 72 67 52 
0.0833034 0.50102 -3.11356 0.55993 0.645858 0.518985 120 104 66 
0.0763237 0.509747 -3.12078 0.444956 0.801823 0.398865 132 112 69 
0.0708214 0.51569 -3.12002 0.53324 0.765534 0.360019 118 105 79 
0.065812 0.516647 -3.12037 0.468123 0.831175 0.300016 117 104 79 
0.0589109 0.521055 -3.12345 0.469972 0.833783 0.28971 109 98 76 
0.0462826 0.529578 -3.12828 0.54633 0.779948 0.305295 103 94 73 
0.0464071 0.530582 -3.13609 0.422232 0.906466 -0.00630069 99 91 72 
0.0395935 0.535441 -3.13342 0.585883 0.78108 0.215999 95 86 68 
0.0363713 0.537784 -3.14069 0.607222 0.785811 0.117399 97 89 72 
0.0223673 0.547348 -3.14061 0.569917 0.821183 0.0292142 91 83 66 
0.0294895 0.542271 -3.14063 0.646306 0.763058 0.00548316 99 91 73 
0.0188427 0.548771 -3.14831 0.513984 0.856964 -0.0378425 94 90 72 
0.0124439 0.554009 -3.14772 0.596088 0.800017 -0.0682064 95 88 70 
0.00801077 0.555051 -3.15627 0.61888 0.768892 -0.160605 89 82 65 
0.000551428 0.559234 -3.1562 0.520676 0.819084 -0.240829 88 82 64 
-0.00701399 0.564962 -3.15623 0.514985 0.782943 -0.348986 93 87 69 
-0.0122112 0.565858 -3.1639 0.498934 0.770235 -0.397244 94 87 70 
-0.0841292 0.59516 -3.19393 -0.117346 0.98978 0.0810229 127 114 90 
-0.0925871 0.594956 -3.18967 -0.159664 0.985892 0.0502524 139 126 100 
-0.0921118 0.595277 -3.19859 -0.209 0.977825 0.0132982 125 112 89 
-0.100349 0.59446 -3.1949 -0.242988 0.956829 0.159487 145 132 106 
-0.227021 0.545034 -3.21606 -0.0315687 0.731845 -0.680739 80 73 57 
-0.236685 0.549318 -3.21185 0.276196 0.774758 -0.56874 77 71 56 
-0.24563 0.546919 -3.21798 0.0148886 0.677271 -0.735583 73 68 54 
-0.257178 0.548801 -3.21881 0.0907359 0.634508 -0.767572 62 58 46 
-0.266387 0.542893 -3.22217 0.480253 0.572908 -0.664179 64 59 46 
-0.266448 0.543151 -3.22223 0.571859 0.536388 -0.620698 64 59 46 
-0.276161 0.548717 -3.22218 0.526717 0.614408 -0.587428 68 63 49 
-0.275708 0.549332 -3.22215 0.505762 0.626163 -0.593401 68 63 49 
-0.285468 0.547107 -3.23072 0.670009 0.526484 -0.523358 60 56 44 
-0.292132 0.556794 -3.23075 0.637605 0.594979 -0.489345 68 64 50 
-0.306048 0.562112 -3.24079 0.429233 0.787148 -0.442896 54 54 43 
-0.323396 0.570224 -3.24429 0.321559 0.887957 -0.328835 49 52 41 
-0.346359 0.573641 -3.25539 0.170109 0.966515 -0.192125 70 69 53 
-0.354829 0.573936 -3.26027 0.0679308 0.991897 -0.10736 69 69 52 
-0.420129 0.554024 -3.26822 0.344498 0.864123 0.366897 72 66 53 
-0.433518 0.571058 -3.27389 0.622176 0.729659 0.283715 118 107 85 
-0.441286 0.577908 -3.28109 0.39458 0.854652 0.337455 126 114 90 
-0.465165 0.586159 -3.29159 -0.235103 0.962767 -0.133441 131 118 91 
-0.479865 0.580901 -3.29136 -0.430014 0.889757 -0.153041 121 109 87 
-0.47233 0.582388 -3.29606 -0.383191 0.922368 0.0490181 128 116 91 
0.402295 0.467849 -3.02266 0.632531 0.637241 0.440259 123 113 94 
0.400738 0.472088 -3.02851 0.524479 0.744925 0.41232 117 106 85 
0.396381 0.472267 -3.02265 0.534195 0.708246 0.461545 120 111 91 
0.394405 0.476619 -3.02892 0.516922 0.758753 0.396341 117 107 86 
0.394476 0.476134 -3.02853 0.496053 0.750767 0.436211 117 107 86 
0.38806 0.480675 -3.02894 0.533271 0.779665 0.328245 113 102 81 
0.369517 0.484926 -3.03963 0.182935 0.784191 -0.592942 104 95 77 
0.362472 0.496216 -3.04014 0.1836 0.785988 -0.590351 104 96 77 
0.345185 0.500394 -3.04787 0.452435 0.890656 -0.0451055 89 81 67 
0.351013 0.495982 -3.04355 0.53743 0.804178 0.253904 94 87 71 
0.338828 0.502691 -3.05171 0.480681 0.865913 -0.138349 89 82 67 
0.337054 0.502355 -3.05224 0.471123 0.853777 -0.221603 88 81 66 
0.330121 0.506798 -3.05224 0.521895 0.819282 -0.237493 77 71 58 
0.329523 0.506007 -3.05435 0.457273 0.838145 -0.297345 78 72 59 
0.336147 0.504188 -3.04993 0.498249 0.852104 -0.160209 86 79 65 
0.332582 0.5028 -3.05913 0.212877 0.774047 -0.596268 85 79 66 
0.327777 0.50271 -3.05994 0.0869776 0.681397 -0.726728 90 83 70 
0.321038 0.508225 -3.06 0.379809 0.663202 -0.644909 88 82 68 
0.325306 0.506021 -3.05902 0.320885 0.705212 -0.632225 88 81 67 
0.290335 0.519905 -3.06962 0.391772 0.5913 -0.704896 81 75 62 
0.282759 0.51907 -3.07785 0.728936 0.641527 -0.238947 79 74 61 
0.277437 0.526053 -3.07719 0.622104 0.72923 -0.284974 85 78 64 
0.273371 0.527442 -3.08411 0.669079 0.735376 -0.107499 68 63 52 
0.271038 0.531021 -3.07721 0.60782 0.771231 -0.189098 88 81 66 
0.26687 0.532138 -3.08477 0.557262 0.812333 -0.171971 72 66 54 
0.252434 0.541152 -3.08697 0.430195 0.864331 -0.260508 98 91 72 
0.248125 0.541302 -3.09391 0.528387 0.842017 -0.1087 102 94 75 
0.238417 0.544047 -3.09632 0.242183 0.965268 -0.0980043 111 102 81 
0.234782 0.544641 -3.09205 0.189729 0.980772 -0.0457112 121 111 87 
0.23107 0.54615 -3.10096 0.151177 0.980957 -0.12194 119 108 85 
0.215755 0.548631 -3.10113 -0.258993 0.965679 -0.0196559 128 116 94 
0.20587 0.543748 -3.10531 -0.248501 0.967764 -0.0409776 142 129 105 
0.197523 0.54156 -3.11015 -0.400377 0.916328 0.00645557 157 143 119 
0.156269 0.498021 -3.09814 -0.502616 0.823137 0.264237 95 84 62 
0.148687 0.493985 -3.09759 -0.50307 0.819031 0.275877 116 103 77 
0.141593 0.493732 -3.10412 -0.184474 0.982824 -0.00511479 105 94 70 
0.133267 0.491952 -3.10868 0.0432035 0.925531 -0.3762 96 83 61 
0.112166 0.492606 -3.10604 -0.285099 0.952405 0.10791 92 84 64 
0.112827 0.491146 -3.10628 -0.445663 0.893509 0.0550132 94 86 67 
0.105021 0.503767 -3.11139 -0.418737 0.862542 -0.284043 75 68 52 
0.0954422 0.489613 -3.1148 0.631366 0.602417 0.488335 56 47 34 
0.0890345 0.497613 -3.1208 0.769237 0.529953 0.356965 93 81 58 
0.0891277 0.492813 -3.11458 0.702036 0.545426 0.457882 85 74 55 
0.0812144 0.508688 -3.12765 0.536671 0.843788 -0.00264607 121 100 52 
0.0837892 0.505255 -3.1207 0.482858 0.781537 0.395031 129 105 49 
0.0730963 0.512619 -3.12772 0.508242 0.850692 0.134212 110 98 72 
0.0656971 0.51721 -3.12771 0.513896 0.844685 0.149726 107 96 74 
0.0661001 0.5171 -3.13656 0.519335 0.852745 -0.055833 100 90 71 
0.0594664 0.521073 -3.13228 0.464594 0.884352 -0.0455474 91 82 65 
0.0494704 0.527594 -3.14355 0.614345 0.783931 -0.0896259 81 74 59 
0.0534546 0.525904 -3.13613 0.492775 0.863704 0.105772 92 84 66 
0.0332313 0.538788 -3.1485 0.445551 0.846909 -0.290225 94 87 70 
0.025925 0.543044 -3.14843 0.624571 0.766555 -0.149347 87 85 67 
0.0215281 0.543669 -3.15623 0.536115 0.807515 -0.245966 85 86 67 
0.0148099 0.549933 -3.15616 0.637778 0.741035 -0.210014 80 76 60 
0.0104716 0.552898 -3.1635 0.582468 0.802477 -0.129467 83 77 61 
0.00295125 0.554587 -3.16708 0.507909 0.738838 -0.442885 82 75 59 
0.00301156 0.554503 -3.16406 0.586215 0.708621 -0.392694 85 77 61 
-0.00421136 0.560609 -3.16406 0.440325 0.824674 -0.355004 85 78 62 
-0.0116127 0.559906 -3.17007 0.490767 0.729053 -0.477105 93 87 70 
-0.022626 0.572499 -3.1775 0.584178 0.787488 -0.196467 90 83 68 
-0.0751441 0.594679 -3.19792 0.0473913 0.998494 -0.0276441 128 115 91 
-0.0835758 0.594674 -3.20254 -0.158138 0.981857 0.104635 104 92 73 
-0.100368 0.596043 -3.204 -0.0716138 0.992984 -0.0941012 139 126 102 
-0.0917249 0.594851 -3.20845 -0.173062 0.983843 -0.045851 120 107 85 
-0.236224 0.542928 -3.2206 0.0412795 0.590228 -0.806181 69 64 51 
-0.248352 0.54021 -3.22352 0.0268914 0.560112 -0.82798 61 57 46 
-0.257157 0.538667 -3.22734 0.2878 0.571493 -0.768484 57 53 42 
-0.277104 0.540131 -3.23076 0.628455 0.494826 -0.60016 55 50 39 
-0.285724 0.539816 -3.23934 0.638306 0.432659 -0.636688 52 49 39 
-0.292532 0.548177 -3.23906 0.590566 0.522351 -0.615128 50 48 37 
-0.301708 0.548126 -3.24747 0.60218 0.473158 -0.643041 29 30 23 
-0.31421 0.562216 -3.2472 0.466203 0.809308 -0.357317 43 44 36 
-0.323068 0.564929 -3.25355 0.438745 0.760928 -0.478007 64 64 50 
-0.33795 0.569778 -3.2594 0.411691 0.808414 -0.420687 51 55 41 
-0.346293 0.57166 -3.26468 0.179344 0.969311 -0.168141 67 66 51 
-0.354922 0.572315 -3.26989 0.185659 0.958725 -0.215352 75 71 55 
-0.420439 0.55816 -3.27874 0.316295 0.926556 0.203598 90 82 65 
-0.431192 0.566671 -3.27989 0.539279 0.765564 0.350841 118 108 85 
-0.431801 0.574965 -3.28979 0.54808 0.778216 0.306575 120 109 86 
-0.440727 0.580557 -3.28959 0.5073 0.822596 0.256869 124 111 88 
-0.457127 0.590416 -3.29643 -0.341741 0.789269 -0.510163 126 113 88 
-0.464923 0.584993 -3.30029 -0.266354 0.952697 -0.146368 125 112 87 
-0.47236 0.581492 -3.30541 -0.417958 0.906342 -0.0620899 119 108 85 
-0.472286 0.582572 -3.30511 -0.461708 0.879068 -0.118595 118 107 85 
0.404905 0.471086 -3.03522 0.801622 0.575919 -0.160372 95 84 68 
0.398703 0.476044 -3.03533 0.542198 0.790866 0.283817 111 101 81 
0.372819 0.485882 -3.04962 0.10349 0.830762 -0.546923 95 89 71 
0.379434 0.486396 -3.04358 0.660528 0.732954 -0.162728 94 86 69 
0.371614 0.487326 -3.04859 0.132735 0.815192 -0.563776 96 89 72 
0.363241 0.493497 -3.0486 0.133387 0.816394 -0.56188 95 88 72 
0.351674 0.490809 -3.05787 0.511703 0.733878 -0.446748 86 80 66 
0.344107 0.496014 -3.05556 0.448659 0.772474 -0.449432 86 79 65 
0.338111 0.498797 -3.05948 0.449887 0.601253 -0.660376 80 75 61 
0.288728 0.513251 -3.07762 0.398664 0.874896 -0.274998 77 72 59 
0.284576 0.515172 -3.08473 0.808792 0.543233 -0.225285 69 65 54 
0.279508 0.521867 -3.08422 0.706086 0.701549 -0.0962929 69 64 53 
0.269465 0.528723 -3.09179 0.586749 0.790173 -0.177067 74 69 58 
0.260564 0.533805 -3.09326 0.495458 0.765909 -0.409762 84 77 63 
0.254188 0.536624 -3.09781 0.4375 0.888733 -0.136923 86 78 63 
0.247821 0.539373 -3.10248 0.444973 0.880014 -0.166055 93 84 67 
0.236354 0.54138 -3.10604 0.369704 0.928322 -0.0392137 107 98 78 
0.230448 0.545096 -3.1099 0.15958 0.986369 0.0401229 116 105 83 
0.222325 0.544524 -3.11409 0.123257 0.990936 -0.0534262 123 112 88 
0.222501 0.544709 -3.10537 0.315708 0.931306 -0.181651 127 116 92 
0.214513 0.545465 -3.10963 -0.116635 0.993175 0.000693589 132 120 97 
0.205621 0.542918 -3.11562 -0.189409 0.980547 -0.0514887 137 126 102 
0.196949 0.541033 -3.11095 -0.39331 0.919293 -0.0143958 158 144 119 
0.159256 0.502452 -3.10617 -0.514063 0.785753 0.343993 83 74 54 
0.150205 0.492833 -3.10955 -0.282487 0.949904 0.133729 73 61 39 
0.141459 0.488092 -3.11506 -0.446835 0.871155 0.203537 81 72 54 
0.124517 0.486702 -3.11271 -0.189246 0.848938 -0.493447 87 79 61 
0.0878725 0.503368 -3.12798 0.71243 0.67241 0.200769 96 83 58 
0.092961 0.495603 -3.12787 0.79388 0.584646 0.167162 69 61 44 
0.0737048 0.512586 -3.13655 0.541418 0.834422 -0.102986 103 92 71 
0.0806804 0.507456 -3.1366 0.609545 0.784884 -0.111409 90 80 58 
0.0691456 0.515155 -3.13529 0.562182 0.826776 -0.0198005 101 91 71 
0.0693834 0.514221 -3.14421 0.520823 0.819861 -0.237846 96 86 67 
0.0564998 0.522874 -3.14358 0.549637 0.835112 -0.0220698 87 80 64 
0.0616424 0.519097 -3.14422 0.64901 0.749607 -0.129907 80 72 57 
0.0520507 0.523373 -3.15094 0.538523 0.739902 -0.40316 83 77 62 
0.0423437 0.531132 -3.14863 0.434899 0.87999 -0.190997 95 88 69 
0.0368196 0.533204 -3.15616 0.557135 0.750441 -0.355584 90 84 67 
0.0292373 0.538253 -3.15627 0.578094 0.753807 -0.312381 85 80 63 
0.0167914 0.540942 -3.16446 0.56296 0.659393 -0.498274 85 82 64 
0.00477475 0.548608 -3.17475 0.561573 0.668276 -0.487896 74 69 56 
-0.00420798 0.556975 -3.1726 0.355438 0.774268 -0.523615 82 75 60 
-0.0114074 0.555256 -3.17867 0.41869 0.719154 -0.554541 88 83 67 
-0.0184623 0.563405 -3.17739 0.784607 0.618032 0.0492806 87 82 67 
-0.0833091 0.595081 -3.213 -0.142408 0.988199 -0.0564123 116 105 82 
