ply
format ascii 1.0
element vertex 701
property float x
property float y
property float z
property float nx
property float ny
property float nz
property uchar diffuse_red
property uchar diffuse_green
property uchar diffuse_blue
end_header
0.705463 0.832028 -5.009 -0.311347 0.841099 -0.442284 166 143 113 
0.695059 0.826634 -5.01248 -0.400946 0.80431 -0.438551 170 142 109 
0.273369 0.591086 -4.9637 -0.273006 0.848195 -0.453909 176 172 162 
-0.176241 0.749671 -5.10797 -0.142688 0.897806 -0.416635 136 131 121 
-0.470719 0.473312 -5.02147 0.947909 0.318514 -0.00426623 94 88 73 
-0.603548 0.561178 -5.07979 -0.018803 0.830199 -0.55715 106 101 89 
-0.614043 0.557842 -5.08491 -0.0973568 0.857411 -0.505339 115 110 97 
-0.624904 0.553576 -5.0891 -0.126918 0.862076 -0.490629 110 106 95 
-0.64635 0.548721 -5.08758 -0.288833 0.83877 -0.461564 110 107 97 
-0.635518 0.554382 -5.0833 -0.227536 0.819228 -0.526395 71 67 59 
0.704936 0.826043 -5.01954 -0.348861 0.810265 -0.47092 159 138 109 
0.695029 0.820783 -5.02265 -0.417039 0.803557 -0.424706 153 128 99 
-0.15691 0.747378 -5.11856 -0.1421 0.867073 -0.477485 131 126 114 
-0.176325 0.744839 -5.11825 -0.228458 0.867788 -0.441307 134 129 118 
-0.614019 0.551518 -5.09561 -0.112088 0.869548 -0.48096 50 47 42 
-0.624868 0.547171 -5.10029 -0.137013 0.878596 -0.45749 86 84 78 
-0.6355 0.548242 -5.09422 -0.223819 0.836533 -0.500117 88 84 76 
1.38843 0.495956 -4.74957 -0.562633 0.709761 -0.423891 140 132 120 
0.534554 0.0531588 -4.6659 -0.194841 0.948994 0.247886 197 191 178 
0.704923 0.820104 -5.03045 -0.358029 0.80382 -0.475068 172 150 120 
0.273546 0.584453 -4.97425 -0.255905 0.79561 -0.549106 168 162 151 
0.262654 0.579407 -4.97781 -0.262952 0.826492 -0.497762 176 171 160 
-0.175944 0.73824 -5.12934 -0.256772 0.856147 -0.448419 135 129 118 
-0.185735 0.733036 -5.13331 -0.319316 0.78063 -0.537265 126 118 108 
-0.472991 0.476413 -5.05437 0.912424 0.356505 -0.200963 112 101 85 
-0.480811 0.4898 -5.0562 0.808707 0.514233 -0.285583 126 118 103 
-0.635471 0.542372 -5.10605 -0.197218 0.905936 -0.37468 128 124 113 
-0.634471 0.542627 -5.10568 -0.190766 0.896234 -0.400467 125 120 110 
-0.644722 0.538653 -5.11117 -0.252168 0.926609 -0.278941 148 142 131 
1.39952 0.497814 -4.75868 -0.64185 0.608203 -0.467031 136 127 110 
0.716995 0.82009 -5.03602 -0.199365 0.824716 -0.529243 186 162 135 
0.704605 0.81484 -5.0404 -0.37253 0.795002 -0.478742 193 171 144 
0.69503 0.814815 -5.03344 -0.361605 0.830107 -0.424457 165 140 110 
0.685838 0.807963 -5.03649 -0.448551 0.78518 -0.426959 198 172 143 
0.273054 0.578541 -4.98518 -0.3333 0.836647 -0.434664 163 157 145 
-0.0708404 0.171376 -4.84301 -0.0874403 0.996164 0.00340808 130 121 106 
-0.08173 0.169535 -4.83687 -0.0634816 0.994946 0.0778016 151 143 125 
-0.0817932 0.170088 -4.84924 -0.0369536 0.999151 -0.0182197 150 142 125 
-0.174867 0.734173 -5.13959 -0.264151 0.860746 -0.435132 136 130 119 
-0.195894 0.726974 -5.13649 -0.256715 0.815434 -0.518811 121 115 103 
-0.479054 0.482373 -5.06805 0.806309 0.537362 -0.247199 113 103 89 
0.716933 0.815634 -5.04606 -0.262851 0.842662 -0.469925 201 178 150 
0.704735 0.808482 -5.05054 -0.374403 0.772179 -0.513382 200 179 153 
0.694974 0.809002 -5.04336 -0.362352 0.799639 -0.47883 197 173 145 
0.68577 0.802629 -5.04706 -0.380244 0.791355 -0.478719 199 180 156 
0.314575 0.578085 -4.99149 -0.0189878 0.828804 -0.559216 170 164 151 
-0.0814817 0.169055 -4.86153 -0.0149456 0.998114 -0.0595493 117 109 95 
-0.165982 0.731423 -5.14621 -0.141894 0.856668 -0.495969 134 128 115 
-0.174602 0.727719 -5.1507 -0.262512 0.843099 -0.469332 135 130 118 
-0.47239 0.471818 -5.07141 0.85762 0.497589 -0.12997 116 106 91 
-0.652298 0.531823 -5.12812 -0.295356 0.949386 -0.106919 153 146 134 
1.22611 0.893409 -5.00918 -0.189859 0.953367 -0.234618 154 145 132 
1.18229 0.871567 -5.01367 -0.57857 0.746246 -0.3292 148 135 116 
0.590183 0.0677672 -4.709 0.159888 0.968874 0.188995 199 192 179 
0.578701 0.0710189 -4.71475 -0.000622094 0.96997 0.243224 191 184 169 
0.731064 0.808538 -5.05792 -0.0814285 0.86347 -0.497785 168 147 123 
0.270853 0.566797 -5.00514 -0.298348 0.832053 -0.467629 163 158 145 
-0.0814964 0.168028 -4.87561 0.0148852 0.990479 -0.136858 143 134 116 
-0.0923234 0.16753 -4.86801 0.00214145 0.994859 -0.101247 152 142 124 
-0.0918663 0.167505 -4.88021 -0.0879781 0.995543 -0.033973 146 135 117 
-0.174334 0.720503 -5.16165 -0.28333 0.809998 -0.513446 135 129 118 
-0.195489 0.712593 -5.15796 -0.333853 0.858872 -0.388434 129 124 112 
-0.469202 0.463752 -5.08382 0.791089 0.609336 -0.0537293 122 112 96 
-0.478526 0.474732 -5.08337 0.827027 0.531621 -0.182774 134 123 105 
1.1895 0.872366 -5.02299 -0.536746 0.719102 -0.441358 136 124 107 
0.577997 0.0753902 -4.72718 -0.0352792 0.951999 0.304061 193 186 172 
0.704544 0.802351 -5.0603 -0.386779 0.774237 -0.500959 187 172 151 
0.696932 0.794069 -5.0679 -0.48563 0.728999 -0.482414 166 157 144 
-0.0708946 0.166592 -4.88298 0.0700365 0.987507 -0.141158 142 133 114 
-0.081608 0.165503 -4.8887 0.0626187 0.980174 -0.187986 141 131 113 
-0.0921798 0.165073 -4.89285 -0.0131334 0.990621 -0.136002 147 140 122 
-0.160225 0.714471 -5.17436 0.0606685 0.849123 -0.5247 141 134 121 
1.18007 0.864298 -5.02317 -0.517404 0.728456 -0.449049 144 130 108 
0.704166 0.790452 -5.07478 -0.308316 0.755679 -0.577833 146 137 122 
-0.069894 0.163441 -4.89523 -0.00419853 0.983444 -0.181163 132 124 106 
-0.0813624 0.16283 -4.90172 0.0541227 0.968265 -0.243994 122 114 96 
-0.0916138 0.162172 -4.90586 0.0714667 0.974653 -0.211998 138 131 111 
-0.102738 0.164725 -4.89921 0.000395376 0.987931 -0.154893 148 140 122 
-0.626429 0.541999 -5.1779 -0.149307 0.953943 0.260193 162 154 140 
1.18959 0.866648 -5.03401 -0.495985 0.774292 -0.393028 147 136 118 
1.18233 0.859764 -5.0354 -0.549269 0.748247 -0.372063 139 130 110 
0.271192 0.545112 -5.03917 -0.336215 0.815997 -0.470222 173 168 156 
-0.0699522 0.160636 -4.90841 -0.0687047 0.970577 -0.230782 117 110 94 
-0.0911306 0.159515 -4.91883 0.0753286 0.961247 -0.265198 135 126 108 
-0.102828 0.161556 -4.91225 0.043037 0.979978 -0.194399 124 117 101 
-0.169494 0.701853 -5.19315 -0.231347 0.747909 -0.622182 135 128 118 
-0.617355 0.547317 -5.19544 -0.0410354 0.956857 0.287647 143 136 124 
-0.62775 0.545429 -5.19093 -0.152906 0.955804 0.251114 156 146 131 
1.20005 0.866426 -5.04245 -0.348727 0.804005 -0.481628 152 141 125 
1.1807 0.852031 -5.04513 -0.580859 0.699236 -0.416739 125 114 91 
1.19002 0.859985 -5.0451 -0.488389 0.766848 -0.416438 148 137 118 
0.700686 0.782216 -5.09015 -0.467541 0.739081 -0.484938 168 162 150 
0.682686 0.773021 -5.08625 -0.46656 0.775573 -0.425216 132 128 121 
0.692012 0.774125 -5.09347 -0.437778 0.784018 -0.440076 166 161 150 
0.321934 0.546671 -5.04167 -0.0783064 0.792059 -0.605402 172 165 151 
0.246654 0.541091 -5.04788 -0.369298 0.64725 -0.666848 182 177 164 
-0.0788937 0.155526 -4.92482 0.0235741 0.962755 -0.269344 132 122 105 
-0.102975 0.158496 -4.9252 0.112101 0.958737 -0.261258 132 124 107 
-0.168344 0.697774 -5.20463 -0.024143 0.874664 -0.484129 134 128 116 
-0.179317 0.694572 -5.20072 -0.263139 0.852513 -0.45164 142 136 124 
-0.199804 0.687316 -5.20453 -0.244202 0.878777 -0.41002 123 117 106 
-0.627735 0.548049 -5.20162 -0.161764 0.951933 0.260108 149 140 127 
-0.618239 0.550767 -5.20661 -0.0869893 0.96532 0.24615 134 123 110 
1.21092 0.865975 -5.04975 -0.359266 0.808228 -0.466578 103 95 85 
1.19937 0.861681 -5.05303 -0.246507 0.783697 -0.570134 140 127 109 
1.18826 0.852481 -5.05477 -0.517351 0.750707 -0.410837 139 130 112 
1.1902 0.853766 -5.05607 -0.484802 0.751666 -0.447175 145 137 120 
0.711235 0.780805 -5.09782 -0.256922 0.830429 -0.494347 185 180 170 
0.70179 0.77386 -5.10118 -0.345645 0.79462 -0.499108 163 157 147 
0.682841 0.767426 -5.09681 -0.41546 0.807553 -0.418631 168 161 150 
0.692204 0.768259 -5.10404 -0.467756 0.742803 -0.479008 169 163 151 
0.257893 0.534697 -5.05541 -0.259876 0.785549 -0.561584 192 186 174 
0.249052 0.531249 -5.06151 -0.414552 0.869439 -0.268741 207 201 189 
-0.0786889 0.1496 -4.93867 0.309239 0.844201 -0.437831 114 106 90 
-0.0915815 0.152149 -4.93322 0.123498 0.877197 -0.463976 126 117 100 
-0.168614 0.690215 -5.2151 -0.128966 0.889853 -0.437641 119 112 102 
-0.17845 0.691665 -5.20943 -0.190262 0.859024 -0.475267 137 130 118 
-0.199695 0.68052 -5.21565 -0.32303 0.832398 -0.450295 130 125 114 
1.45731 0.474763 -4.83123 -0.0250639 0.840638 -0.541017 128 122 112 
0.73082 0.776522 -5.10979 -0.162248 0.813008 -0.55919 148 142 132 
0.717051 0.774455 -5.11105 -0.150694 0.794537 -0.58822 144 138 126 
0.702063 0.768318 -5.11153 -0.344456 0.762641 -0.547475 155 148 136 
0.257617 0.529912 -5.06816 -0.384375 0.874257 -0.29653 203 196 185 
0.246691 0.525634 -5.07477 -0.425901 0.874919 -0.230488 211 205 193 
-0.0922277 0.147607 -4.94697 0.23153 0.886767 -0.400047 107 100 85 
-0.200316 0.67494 -5.22547 -0.245825 0.834369 -0.493354 136 129 116 
-0.18946 0.680977 -5.22368 -0.33476 0.856412 -0.393058 131 125 113 
1.21823 0.856241 -5.07305 -0.138528 0.892033 -0.430217 165 148 130 
1.19758 0.852081 -5.06734 -0.419393 0.791712 -0.444188 157 149 137 
1.1874 0.845017 -5.06717 -0.541973 0.730612 -0.415297 125 118 105 
1.17769 0.83769 -5.06702 -0.585764 0.699703 -0.40902 130 118 99 
0.740222 0.77425 -5.11433 -0.131652 0.809648 -0.57196 138 131 121 
0.741156 0.774376 -5.11453 -0.140702 0.805398 -0.575792 138 131 121 
0.72847 0.772253 -5.1176 -0.150577 0.817492 -0.555908 148 141 131 
0.71699 0.767036 -5.12217 -0.139631 0.815071 -0.562284 148 141 129 
-0.179179 0.678431 -5.23067 -0.248381 0.843973 -0.475412 135 129 117 
-0.19873 0.672367 -5.23114 -0.284187 0.792479 -0.539644 132 125 112 
-0.189234 0.674003 -5.23654 -0.310963 0.803446 -0.507718 132 126 114 
-0.210744 0.670713 -5.22833 -0.335131 0.809134 -0.482689 137 132 120 
-0.617979 0.565874 -5.26052 -0.0386223 0.970171 0.239325 149 142 130 
1.44687 0.461672 -4.85226 -0.144204 0.864885 -0.480811 134 127 118 
1.20599 0.851048 -5.07665 -0.447246 0.76709 -0.459938 148 139 126 
1.18549 0.837742 -5.07686 -0.585164 0.718465 -0.376019 78 68 60 
1.19514 0.844808 -5.07691 -0.538531 0.748198 -0.387536 99 97 90 
1.1953 0.844876 -5.07702 -0.536874 0.747387 -0.391382 100 98 90 
1.17585 0.830324 -5.07678 -0.558422 0.735001 -0.384628 102 92 78 
0.728617 0.764099 -5.12843 -0.156788 0.81991 -0.550604 162 155 144 
0.70686 0.761934 -5.12684 -0.318136 0.805605 -0.49979 144 137 126 
0.695817 0.755266 -5.13086 -0.355385 0.756413 -0.549128 141 135 124 
0.375121 0.523112 -5.08003 0.408293 0.871235 -0.272481 184 172 152 
-0.158404 0.678814 -5.23972 -0.0284058 0.844705 -0.534478 136 131 120 
-0.168323 0.67492 -5.24455 -0.0863123 0.861152 -0.500967 139 133 121 
-0.178886 0.674124 -5.24021 -0.0259627 0.824835 -0.564778 138 133 121 
-0.20845 0.661532 -5.24651 -0.275976 0.875834 -0.395918 130 122 109 
-0.198646 0.666899 -5.24183 -0.195762 0.886684 -0.418891 133 127 114 
-0.61823 0.568403 -5.2706 -0.0414962 0.966382 0.25374 136 130 118 
1.21743 0.850474 -5.0842 -0.144167 0.864491 -0.48153 150 136 117 
1.20372 0.84385 -5.08633 -0.400969 0.802514 -0.44181 147 139 126 
1.19339 0.837391 -5.08697 -0.483344 0.742461 -0.46382 109 104 96 
1.19269 0.838 -5.08679 -0.458665 0.780752 -0.424325 105 100 92 
1.1833 0.830746 -5.08668 -0.569768 0.71457 -0.405899 119 110 100 
0.725927 -0.061796 -4.74702 0.476579 0.872111 0.110882 27 23 18 
0.706603 0.754732 -5.13797 -0.278933 0.788176 -0.548612 136 129 116 
0.678844 0.743724 -5.13166 -0.484913 0.72086 -0.495198 166 160 146 
-0.158231 0.672539 -5.25039 -0.0735214 0.867392 -0.492164 141 134 122 
-0.188483 0.666007 -5.24915 -0.204578 0.855913 -0.474932 137 129 114 
-0.179111 0.668161 -5.25429 -0.258797 0.801037 -0.539781 136 129 115 
-0.208598 0.65702 -5.25822 -0.306297 0.926664 -0.217892 141 134 121 
-0.198507 0.661552 -5.25302 -0.254507 0.893268 -0.370538 135 124 107 
-0.618229 0.571482 -5.28117 -0.0378675 0.961349 0.272715 143 134 121 
-0.618326 0.571778 -5.28117 -0.0169411 0.955796 0.293541 143 134 121 
1.21492 0.843726 -5.09387 -0.211775 0.799366 -0.562285 140 130 115 
1.20395 0.83741 -5.09757 -0.35868 0.803983 -0.4743 119 111 101 
0.718369 0.753576 -5.14474 -0.217329 0.838616 -0.499491 126 119 107 
0.706796 0.747883 -5.14841 -0.281486 0.792942 -0.540379 135 129 116 
0.696428 0.749134 -5.14157 -0.272561 0.833401 -0.480784 137 131 117 
0.258506 0.535111 -5.12783 -0.218069 0.93505 0.279514 189 182 168 
-0.169338 0.665542 -5.26155 -0.178618 0.874567 -0.450808 141 133 119 
-0.158919 0.667964 -5.25995 -0.0455266 0.853626 -0.518893 137 129 114 
-0.188718 0.662477 -5.25927 -0.183204 0.89226 -0.412683 136 127 112 
-0.178499 0.660609 -5.26683 -0.145896 0.904946 -0.399734 141 133 120 
-0.218669 0.653131 -5.26315 -0.348309 0.928845 -0.126205 153 146 134 
-0.20921 0.655053 -5.26954 -0.287701 0.939212 -0.187372 157 149 137 
1.39805 0.426326 -4.8824 -0.50686 0.707766 -0.492097 114 106 93 
1.2154 0.836247 -5.10504 -0.246835 0.788043 -0.563969 144 136 124 
1.20388 0.830746 -5.10899 -0.315587 0.811931 -0.491093 128 117 107 
1.19348 0.830272 -5.10111 -0.461395 0.774476 -0.432783 152 139 123 
0.751942 0.754373 -5.14999 -0.111026 0.807233 -0.579697 98 91 80 
0.71795 0.748501 -5.15192 -0.173515 0.825608 -0.536902 148 141 131 
0.707504 0.741649 -5.15726 -0.277765 0.840436 -0.465311 160 154 143 
0.697068 0.742524 -5.15031 -0.414578 0.760656 -0.499527 131 125 113 
-0.148599 0.664003 -5.26627 -0.128569 0.859015 -0.495543 131 122 106 
-0.168938 0.659044 -5.27296 -0.16597 0.915884 -0.365528 145 138 124 
-0.158752 0.659864 -5.27183 -0.137504 0.895517 -0.423251 141 131 113 
-0.178527 0.656189 -5.27731 -0.13431 0.908681 -0.395297 131 124 113 
-0.217246 0.647659 -5.27595 -0.121618 0.890111 -0.439217 152 144 130 
-0.218948 0.64853 -5.27566 -0.195651 0.92308 -0.331126 156 148 135 
-0.236648 0.645442 -5.27333 -0.168681 0.963363 -0.208515 155 148 134 
1.21536 0.829594 -5.11612 -0.22135 0.86033 -0.459169 148 138 125 
1.17222 0.808514 -5.111 -0.551406 0.720313 -0.420834 147 133 116 
0.739756 0.744735 -5.16446 -0.194048 0.833079 -0.518001 145 138 125 
0.697469 0.735433 -5.16236 -0.371287 0.787139 -0.492502 143 137 124 
0.69762 0.734017 -5.16235 -0.345793 0.818884 -0.4581 156 151 139 
0.683242 0.726652 -5.16243 -0.4797 0.760005 -0.438497 164 158 147 
-0.113663 0.661829 -5.27597 -0.0315356 0.921588 -0.386886 143 137 124 
-0.158462 0.655745 -5.28118 -0.173858 0.90935 -0.377963 143 134 120 
1.20386 0.82408 -5.12006 -0.33403 0.797859 -0.501841 159 146 133 
1.1797 0.809046 -5.12081 -0.594434 0.684457 -0.422099 151 138 123 
1.17069 0.800525 -5.12115 -0.59939 0.706747 -0.375819 131 122 106 
0.707619 0.734714 -5.16874 -0.301491 0.859183 -0.41341 163 157 145 
0.692364 0.728586 -5.17005 -0.476715 0.784171 -0.397264 156 148 137 
0.683182 0.721466 -5.17305 -0.421885 0.803485 -0.420029 161 154 141 
0.671921 0.716183 -5.17013 -0.405994 0.806988 -0.428881 160 152 141 
-0.00530552 0.651771 -5.26328 0.130351 0.966994 0.21893 176 168 154 
-0.0157664 0.654415 -5.27053 0.131435 0.97875 0.157396 178 170 155 
-0.148727 0.652888 -5.28642 -0.155257 0.87468 -0.459162 134 124 108 
-0.13808 0.653652 -5.29209 -0.154127 0.866928 -0.474004 133 122 105 
-0.178287 0.646372 -5.30087 -0.155793 0.895147 -0.41766 145 138 126 
-0.243428 0.639311 -5.30078 -0.288919 0.888816 -0.355712 156 150 137 
1.20357 0.817534 -5.13111 -0.347823 0.810382 -0.471487 138 128 116 
1.18829 0.807382 -5.13064 -0.419256 0.70036 -0.577685 162 147 128 
0.707642 0.729046 -5.18029 -0.27363 0.848655 -0.452671 170 164 153 
0.70803 0.729206 -5.18027 -0.265901 0.851613 -0.451721 170 164 153 
0.698324 0.722376 -5.18481 -0.385048 0.820181 -0.423132 156 150 142 
0.69792 0.722318 -5.18472 -0.387944 0.816079 -0.428387 155 149 141 
0.680331 0.713948 -5.18247 -0.510699 0.783116 -0.354847 133 126 117 
0.669944 0.708127 -5.18284 -0.510368 0.78275 -0.356128 156 149 137 
0.672999 0.709141 -5.18204 -0.46723 0.821221 -0.327556 154 146 135 
0.0053436 0.649426 -5.26933 0.273086 0.928126 0.252993 179 171 157 
-0.0053205 0.654622 -5.27643 0.187242 0.978265 0.0890926 176 168 153 
-0.0733739 0.658587 -5.28912 -0.0961641 0.986166 -0.135012 167 160 147 
-0.122634 0.649835 -5.30336 -0.183222 0.90422 -0.385767 144 137 125 
-0.168584 0.641398 -5.30756 -0.0493564 0.851863 -0.521434 139 132 120 
-0.188486 0.641229 -5.30497 -0.182493 0.87242 -0.45341 145 139 124 
1.21522 0.816827 -5.13866 -0.360016 0.834383 -0.417366 127 118 108 
1.20137 0.809051 -5.14215 -0.376844 0.792432 -0.479625 116 108 97 
0.708345 0.723277 -5.19197 -0.292781 0.859199 -0.41959 163 157 147 
0.689783 0.714731 -5.18946 -0.390138 0.822656 -0.413559 135 130 122 
0.00586054 0.653435 -5.2847 0.190399 0.945106 0.265559 176 169 154 
-0.103331 0.649981 -5.31431 -0.228198 0.915267 -0.331983 148 141 130 
-0.12274 0.645438 -5.31484 -0.141216 0.912088 -0.384907 145 138 127 
-0.148498 0.643451 -5.30759 -0.120975 0.887427 -0.44479 138 131 118 
-0.158134 0.641736 -5.31207 0.0986299 0.806339 -0.583172 141 135 123 
-0.213277 0.635469 -5.31946 -0.143718 0.875971 -0.460457 138 131 118 
-0.363588 0.61204 -5.34552 -0.163171 0.98557 -0.0450234 156 148 134 
-0.36249 0.61432 -5.34321 -0.190632 0.981617 -0.00934555 155 147 133 
1.27812 0.358782 -4.93376 -0.354739 0.870394 0.34143 152 144 125 
1.21238 0.808644 -5.14973 -0.348751 0.813315 -0.465716 135 128 117 
1.19151 0.801413 -5.14537 -0.433055 0.78068 -0.450557 119 107 90 
1.18084 0.794923 -5.14516 -0.512514 0.72763 -0.455943 118 106 85 
0.696282 0.710358 -5.20084 -0.343797 0.812934 -0.470045 162 155 143 
0.708777 0.716936 -5.20318 -0.252935 0.820781 -0.512193 154 147 135 
0.698283 0.717866 -5.19607 -0.416472 0.820312 -0.391968 162 156 145 
0.667067 0.698882 -5.20283 -0.441499 0.835686 -0.326661 173 166 151 
-0.0437732 0.657546 -5.3182 -0.100878 0.990162 -0.0969725 163 155 142 
-0.10311 0.649084 -5.31571 -0.253703 0.925827 -0.280141 148 141 129 
-0.112862 0.644813 -5.32098 -0.274131 0.892507 -0.358168 140 132 121 
-0.12276 0.640906 -5.3239 -0.16178 0.927327 -0.33748 136 130 119 
-0.142787 0.637172 -5.32177 -0.206407 0.899142 -0.385928 137 131 119 
-0.132614 0.641521 -5.31759 -0.161033 0.882215 -0.442452 139 133 121 
-0.15484 0.636696 -5.32059 -0.158279 0.895247 -0.416511 130 124 112 
-0.306779 0.621656 -5.35249 -0.0122422 0.982119 -0.187864 141 133 121 
-0.327011 0.619787 -5.35304 -0.135855 0.970814 -0.197646 142 135 123 
-0.64541 0.593983 -5.4037 -0.280749 0.948432 -0.147166 139 127 105 
1.20203 0.801502 -5.15359 -0.375519 0.817455 -0.436753 113 106 97 
1.189 0.793848 -5.15526 -0.470187 0.765614 -0.439043 129 120 107 
1.17848 0.787403 -5.15508 -0.522242 0.749742 -0.406386 102 94 81 
0.74137 0.719542 -5.20838 -0.175516 0.813334 -0.554691 139 134 123 
0.707016 0.712647 -5.20783 -0.208605 0.812125 -0.544919 156 150 137 
0.685786 0.705257 -5.20576 -0.400142 0.815923 -0.417321 170 163 150 
0.676306 0.699278 -5.21065 -0.479881 0.837354 -0.261825 183 176 162 
-0.025652 0.658392 -5.32537 0.0143443 0.997352 -0.0712997 163 156 143 
-0.0361016 0.656125 -5.32011 -0.170157 0.984267 -0.047593 163 156 143 
-0.112526 0.640271 -5.33122 -0.310311 0.852255 -0.421151 120 113 104 
-0.122429 0.63483 -5.33514 -0.313891 0.83046 -0.460226 129 122 111 
-0.132567 0.635843 -5.32794 -0.226533 0.857291 -0.462315 124 119 108 
-0.155637 0.630832 -5.33061 -0.00790289 0.748214 -0.663411 136 129 116 
-0.167594 0.624847 -5.33527 -0.0229365 0.843999 -0.535855 120 114 105 
-0.187715 0.626526 -5.33568 0.120964 0.761808 -0.636409 119 113 102 
-0.197993 0.624553 -5.34136 0.137749 0.741588 -0.656561 121 114 103 
-0.21034 0.624324 -5.34224 0.0889337 0.795138 -0.599872 128 123 109 
-0.221662 0.621533 -5.34781 0.0472719 0.816406 -0.575541 129 122 111 
-0.232943 0.619729 -5.35124 0.0193969 0.835295 -0.54946 133 126 115 
-0.316766 0.619225 -5.35803 -0.0513061 0.969215 -0.24081 148 140 129 
-0.359807 0.611825 -5.36585 0.0821982 0.96494 -0.249268 145 138 127 
1.19818 0.792298 -5.16625 -0.331661 0.803267 -0.494735 133 123 113 
1.17663 0.780279 -5.16544 -0.569729 0.748393 -0.339582 100 92 79 
1.18695 0.787196 -5.16574 -0.520389 0.775584 -0.357302 110 104 91 
1.18628 0.786969 -5.16499 -0.456987 0.776534 -0.433772 110 103 89 
0.706062 0.708508 -5.21814 -0.213173 0.840761 -0.497674 157 149 135 
-0.0537516 0.653242 -5.3343 -0.170686 0.953371 -0.248899 151 145 131 
-0.0633981 0.64939 -5.33977 -0.179935 0.938125 -0.295878 152 145 132 
-0.102918 0.640633 -5.33683 -0.196345 0.880556 -0.431357 124 119 109 
-0.11216 0.633073 -5.3426 -0.317783 0.797535 -0.512788 123 116 107 
-0.122445 0.629711 -5.34479 -0.255684 0.828977 -0.497417 126 120 109 
-0.132451 0.62936 -5.33873 -0.186955 0.829808 -0.525801 131 125 113 
-0.142345 0.623763 -5.34296 -0.226325 0.822417 -0.521926 115 110 100 
-0.152309 0.617965 -5.34695 -0.02009 0.774974 -0.631674 133 127 117 
-0.168735 0.616653 -5.34642 -0.0710597 0.782878 -0.618104 130 124 114 
-0.190642 0.617107 -5.34672 0.072769 0.785468 -0.61461 117 111 101 
-0.210199 0.616733 -5.35257 0.0572572 0.756602 -0.651364 120 114 103 
-0.221549 0.613149 -5.35806 0.157942 0.755902 -0.635348 114 108 98 
-0.263045 0.617953 -5.35666 -0.0116661 0.853291 -0.521304 117 111 101 
-0.326974 0.61138 -5.37694 0.0306429 0.914243 -0.404006 129 121 108 
-0.61732 0.589627 -5.42374 -0.107277 0.892 -0.439121 104 87 64 
-0.637174 0.587151 -5.42442 -0.0491228 0.894938 -0.443478 91 78 55 
-0.644847 0.590171 -5.41655 -0.190974 0.920694 -0.340369 109 96 65 
-0.653776 0.586568 -5.42116 -0.199991 0.922967 -0.328839 134 120 64 
1.20684 0.789278 -5.17535 -0.296428 0.81317 -0.500885 130 120 107 
1.18412 0.780773 -5.17559 -0.604658 0.724659 -0.330543 107 98 82 
-0.0351414 0.654091 -5.34324 -0.242868 0.959403 -0.14339 155 147 136 
-0.0638506 0.645514 -5.3485 -0.195767 0.903493 -0.381281 141 133 122 
-0.073365 0.640413 -5.35351 -0.241108 0.852152 -0.46444 132 125 114 
-0.0834621 0.642189 -5.34681 -0.215054 0.895681 -0.389239 133 127 117 
-0.101903 0.633277 -5.34916 -0.295359 0.81062 -0.505627 117 111 101 
-0.122126 0.622942 -5.35493 -0.290397 0.83648 -0.464727 118 114 104 
-0.132674 0.624222 -5.34831 -0.25704 0.798791 -0.543934 109 104 96 
-0.141949 0.615227 -5.35375 -0.20288 0.772982 -0.601115 99 94 86 
-0.157935 0.613014 -5.35141 -0.102359 0.735639 -0.669595 133 126 116 
-0.158322 0.612978 -5.35143 -0.110676 0.734203 -0.669848 133 126 116 
-0.168753 0.608736 -5.35626 0.017083 0.804717 -0.593413 122 116 106 
-0.242939 0.609699 -5.36664 0.0495838 0.819986 -0.570232 124 118 108 
-0.30726 0.608511 -5.38069 0.00521216 0.849576 -0.527441 144 138 125 
-0.444295 0.5937 -5.40341 -0.234674 0.961965 -0.139826 138 128 111 
-0.505607 0.545204 -5.39312 -0.271495 0.957386 0.0985057 86 76 63 
-0.607293 0.590977 -5.42718 0.146866 0.954949 -0.257881 112 100 79 
-0.597219 0.58828 -5.42269 0.18529 0.871978 -0.453124 117 108 93 
-0.617752 0.581604 -5.43346 0.0737293 0.759741 -0.646033 81 72 47 
-0.627216 0.588525 -5.42857 -0.00974196 0.900523 -0.434699 89 75 53 
1.19629 0.783451 -5.17924 -0.359986 0.820048 -0.444894 127 119 104 
1.17538 0.77154 -5.17598 -0.530254 0.763526 -0.368589 114 106 89 
0.856473 0.689169 -5.20008 0.540225 0.80137 0.256833 167 159 140 
0.383244 0.52645 -5.22567 0.530623 0.798754 0.283604 162 154 140 
-0.0442263 0.645338 -5.36127 -0.233353 0.904118 -0.357934 150 143 131 
-0.0539677 0.645288 -5.35503 -0.242832 0.907768 -0.342039 150 142 131 
-0.0638665 0.641222 -5.35908 -0.183992 0.908858 -0.374331 147 140 129 
-0.0730147 0.634333 -5.3647 -0.283121 0.832759 -0.475769 136 130 120 
-0.0828552 0.633569 -5.35812 -0.197712 0.841693 -0.502457 126 120 110 
-0.142422 0.608675 -5.36354 -0.173839 0.716029 -0.676079 111 106 96 
-0.157979 0.604278 -5.36094 -0.184409 0.717391 -0.671821 114 108 97 
-0.155495 0.604672 -5.3608 -0.176523 0.713381 -0.678179 115 108 98 
-0.166926 0.598902 -5.36568 0.0888761 0.795494 -0.599409 117 112 103 
-0.212839 0.603312 -5.36876 0.079042 0.682411 -0.726682 99 94 84 
-0.231245 0.605096 -5.37113 0.110984 0.76371 -0.635948 113 107 95 
-0.24243 0.60262 -5.37721 0.102157 0.793073 -0.600499 107 104 93 
-0.253473 0.600136 -5.38327 0.258583 0.619559 -0.741135 116 112 100 
-0.274923 0.601868 -5.38394 0.0310021 0.831356 -0.554874 138 130 118 
-0.264537 0.604687 -5.37869 0.178195 0.748599 -0.638628 135 128 116 
-0.334684 0.602336 -5.39887 -0.0175868 0.926609 -0.375615 134 127 115 
-0.533218 0.539833 -5.40925 0.558826 0.789799 -0.252846 72 68 57 
-0.589043 0.573272 -5.43717 0.239834 0.698776 -0.673938 100 94 80 
-0.597487 0.581148 -5.43236 0.128287 0.75806 -0.639443 136 125 105 
-0.606788 0.579217 -5.43841 0.0612507 0.700596 -0.710924 90 80 47 
-0.617855 0.572973 -5.4426 0.0564524 0.702345 -0.709595 109 93 31 
-0.628459 0.577716 -5.43848 -0.140293 0.746361 -0.650587 89 78 38 
1.19631 0.776247 -5.18971 -0.335308 0.805135 -0.48921 122 111 89 
1.18175 0.773915 -5.18574 -0.597626 0.732523 -0.325965 123 113 93 
1.17289 0.765617 -5.18607 -0.582045 0.704957 -0.40529 103 95 81 
0.172816 0.497585 -5.27016 -0.00786437 0.917717 0.397158 81 76 61 
-0.0142442 0.649823 -5.36815 -0.180164 0.936367 -0.30126 131 123 113 
-0.0342766 0.645379 -5.36788 -0.377974 0.895036 -0.23674 148 140 129 
-0.0441536 0.640423 -5.3726 -0.275409 0.849618 -0.449778 135 128 117 
-0.0540022 0.641193 -5.36574 -0.277191 0.895186 -0.349007 139 130 120 
-0.0628326 0.631983 -5.37168 -0.297979 0.788176 -0.538504 130 123 113 
-0.0825776 0.627097 -5.36901 -0.273528 0.801066 -0.532424 118 112 102 
-0.155563 0.594634 -5.37051 -0.15504 0.715175 -0.681533 105 99 90 
-0.163307 0.594976 -5.37723 -0.0613562 0.845283 -0.530784 101 97 90 
-0.192722 0.589341 -5.37898 0.274205 0.565521 -0.777816 101 97 88 
-0.21796 0.594175 -5.38123 -0.110395 0.581322 -0.80615 101 95 84 
-0.231277 0.596621 -5.38128 0.048991 0.759503 -0.648656 116 110 99 
-0.242485 0.593781 -5.38723 0.193994 0.719099 -0.66728 105 101 92 
-0.305449 0.594949 -5.40276 0.159709 0.750499 -0.641284 130 125 113 
-0.344725 0.599932 -5.4036 0.0342479 0.915857 -0.400041 127 120 108 
-0.393608 0.59342 -5.42179 0.022874 0.91059 -0.412678 111 104 94 
-0.594898 0.568201 -5.44561 0.126829 0.609552 -0.782535 122 105 52 
-0.606323 0.564798 -5.44986 -0.150615 0.651548 -0.743505 138 111 30 
-0.618768 0.570154 -5.44468 0.018173 0.699617 -0.714287 115 95 26 
1.5677 0.411359 -4.97098 0.105243 0.992133 0.0677883 131 121 109 
1.17321 0.759132 -5.19596 -0.473859 0.757303 -0.449388 128 117 102 
-0.00403979 0.650946 -5.37343 -0.0928917 0.961578 -0.258338 147 139 127 
-0.0239157 0.645018 -5.3757 -0.199345 0.908756 -0.36664 141 133 122 
-0.0142098 0.644781 -5.38173 -0.253236 0.876748 -0.408883 138 131 120 
-0.0337741 0.639933 -5.38046 -0.285256 0.850901 -0.441131 143 137 125 
-0.0435032 0.634277 -5.38448 -0.292622 0.830863 -0.473328 137 131 120 
-0.181002 0.582921 -5.38151 0.298954 0.583729 -0.754908 103 99 90 
-0.175608 0.577214 -5.38476 0.325711 0.63154 -0.703612 107 103 96 
-0.188784 0.575745 -5.38662 0.28391 0.573608 -0.768355 97 93 85 
-0.206486 0.586754 -5.38502 0.184793 0.511616 -0.839107 99 95 85 
-0.231384 0.586086 -5.39049 0.270643 0.603954 -0.749662 99 95 86 
-0.263184 0.587946 -5.39756 0.224637 0.639133 -0.735559 111 107 96 
-0.283194 0.59086 -5.40012 0.26045 0.693451 -0.671782 100 95 86 
-0.294738 0.588115 -5.4066 0.195091 0.594489 -0.780078 105 101 91 
-0.308069 0.587355 -5.41056 0.0847125 0.720351 -0.688417 123 117 106 
-0.318527 0.585664 -5.41655 0.279163 0.643226 -0.712971 119 114 102 
-0.333097 0.585544 -5.41964 0.140902 0.707638 -0.692384 127 123 110 
-0.364859 0.587249 -5.42733 0.0548619 0.830944 -0.553645 130 124 113 
-0.423398 0.587438 -5.43767 0.215277 0.929409 -0.299756 134 127 115 
-0.582052 0.560753 -5.44875 0.236125 0.617482 -0.750308 101 95 79 
-0.595118 0.556291 -5.45425 0.144484 0.546151 -0.825132 86 77 43 
-0.60645 0.552287 -5.45814 -0.0874608 0.576019 -0.812744 89 76 33 
-0.618786 0.558364 -5.45321 -0.0971341 0.588464 -0.802667 143 113 28 
1.18163 0.757831 -5.20538 -0.504699 0.723786 -0.470545 121 109 91 
0.873035 0.693648 -5.24141 0.14065 0.975289 0.170381 146 136 116 
0.102991 0.651622 -5.36896 0.277651 0.932535 0.230844 171 164 153 
-0.0237218 0.638667 -5.38744 -0.257331 0.854101 -0.451987 139 131 120 
-0.0335965 0.633674 -5.39123 -0.217221 0.868306 -0.445938 131 124 113 
-0.188925 0.561553 -5.39491 0.355041 0.621105 -0.698695 75 73 67 
-0.177085 0.569335 -5.38877 0.264277 0.563809 -0.782481 88 85 77 
-0.20053 0.570622 -5.39372 0.265422 0.561808 -0.783532 84 82 74 
-0.211093 0.571521 -5.39411 0.263913 0.5591 -0.785975 79 77 67 
-0.223024 0.567983 -5.39883 -0.0284371 0.724489 -0.688699 96 93 84 
-0.263111 0.577324 -5.40827 0.0346122 0.681492 -0.731006 95 90 80 
-0.270457 0.572841 -5.41293 0.31803 0.603217 -0.731427 106 101 90 
-0.283142 0.581373 -5.41101 0.288956 0.616682 -0.732262 107 103 93 
-0.307956 0.579433 -5.42102 0.150039 0.671851 -0.725331 113 109 99 
-0.314302 0.581882 -5.41755 0.204026 0.738478 -0.642669 131 126 116 
-0.404261 0.584259 -5.43799 -0.0110829 0.865891 -0.500109 124 116 101 
-0.414239 0.582065 -5.44353 -0.0509825 0.882929 -0.46673 110 104 91 
-0.424863 0.584031 -5.44662 0.063142 0.932585 -0.355385 121 114 103 
1.58995 0.41118 -4.98465 0.104551 0.992304 0.0663387 123 118 109 
1.19694 0.762825 -5.21428 -0.480324 0.821777 -0.306548 136 124 101 
1.19097 0.761552 -5.21295 -0.472948 0.779416 -0.410889 119 108 87 
1.1814 0.753238 -5.21807 -0.494687 0.811483 -0.311095 136 127 110 
1.16247 0.740341 -5.21694 -0.56422 0.786596 -0.250843 130 122 108 
0.900317 0.680245 -5.23878 0.477601 0.835095 0.272971 130 119 96 
0.89514 0.685875 -5.24461 0.389407 0.910517 0.138998 123 112 90 
0.88379 0.692268 -5.24791 0.218734 0.958862 0.180941 142 132 112 
0.81233 0.697761 -5.26465 -0.0240377 0.968336 -0.248491 128 118 100 
0.00612652 0.642933 -5.40093 -0.19996 0.909762 -0.363798 140 133 123 
-0.00355574 0.642391 -5.39468 -0.268958 0.872831 -0.407219 149 141 130 
-0.0120118 0.637393 -5.39635 -0.222599 0.874127 -0.431684 134 127 114 
-0.0422921 0.62385 -5.39719 -0.265685 0.765026 -0.586641 128 122 112 
-0.0518517 0.614703 -5.40143 -0.307623 0.725393 -0.615771 112 107 97 
-0.168605 0.551229 -5.39614 0.205062 0.5312 -0.822056 89 87 78 
-0.202756 0.556561 -5.40223 0.324888 0.63271 -0.70294 88 86 79 
-0.229215 0.557319 -5.4048 -0.108543 0.782685 -0.612881 101 99 92 
-0.266504 0.564996 -5.41801 0.172385 0.504982 -0.845741 97 93 83 
-0.295109 0.570631 -5.42406 0.220526 0.572521 -0.789676 99 96 88 
-0.308052 0.566994 -5.43086 0.260569 0.553902 -0.790757 104 99 89 
-0.320897 0.575701 -5.42779 0.118771 0.656033 -0.745329 103 98 87 
-0.341966 0.571411 -5.43801 0.171174 0.664989 -0.726972 108 103 94 
-0.36525 0.574761 -5.43852 0.161194 0.769996 -0.617351 115 110 103 
-0.385451 0.571467 -5.44823 0.138497 0.763704 -0.630535 120 114 104 
-0.375448 0.574932 -5.44368 0.12027 0.768526 -0.628413 123 118 109 
-0.396109 0.578357 -5.4446 0.0474057 0.76451 -0.642866 119 112 98 
-0.408778 0.57342 -5.4501 0.00363376 0.739147 -0.673535 108 102 87 
-0.490831 0.529004 -5.44381 0.0814846 0.738488 -0.669325 50 48 43 
0.894874 0.689279 -5.25563 0.305566 0.940845 0.146423 127 114 92 
0.833068 0.697878 -5.26464 -0.0510664 0.99641 -0.0675201 139 129 109 
0.044551 0.649131 -5.40205 -0.214166 0.951205 -0.222131 136 127 116 
0.0158288 0.641899 -5.4067 -0.0373223 0.900959 -0.432296 139 132 120 
0.00614573 0.637068 -5.41095 -0.224898 0.867058 -0.444558 138 131 119 
-0.0036165 0.637309 -5.40463 -0.28644 0.825207 -0.486812 136 128 116 
-0.042295 0.61641 -5.40691 -0.302647 0.72539 -0.618234 124 118 108 
-0.0528918 0.61148 -5.40937 -0.26265 0.816208 -0.514606 117 112 103 
-0.0529393 0.610811 -5.40921 -0.305283 0.803251 -0.511458 117 112 103 
-0.182996 0.542738 -5.40217 0.348029 0.617362 -0.705507 69 68 63 
-0.190707 0.543434 -5.4085 0.309461 0.593099 -0.743282 61 61 56 
-0.207007 0.544048 -5.40587 0.230225 0.772316 -0.592052 79 76 71 
-0.280999 0.560754 -5.42597 0.225996 0.5345 -0.814392 83 79 71 
-0.295271 0.554695 -5.4331 -7.31498e-05 0.535553 -0.844501 90 86 79 
-0.30811 0.552596 -5.44011 0.264732 0.554339 -0.789066 79 76 69 
-0.321934 0.562325 -5.43869 0.273204 0.556522 -0.784629 89 85 75 
-0.328045 0.552983 -5.44105 0.383598 0.616335 -0.687738 106 103 95 
-0.344106 0.557657 -5.44782 0.252371 0.543834 -0.800346 101 98 87 
-0.357119 0.565565 -5.44512 0.263261 0.650319 -0.712586 113 109 100 
-0.385429 0.563179 -5.45863 0.208085 0.666086 -0.716261 102 95 86 
-0.373948 0.566281 -5.45247 0.317462 0.575625 -0.753574 113 107 98 
-0.396882 0.568903 -5.45457 0.128589 0.734089 -0.666767 100 96 86 
-0.490737 0.521206 -5.45372 0.411207 0.599765 -0.686433 42 44 45 
1.25401 0.781935 -5.2315 -0.0718597 0.988697 0.131582 160 151 134 
1.20329 0.758904 -5.2373 -0.436298 0.892152 -0.117084 160 151 136 
0.48267 0.639295 -5.32896 -0.290611 0.943452 0.15951 170 161 148 
0.0344979 0.642042 -5.41893 -0.302571 0.864816 -0.400679 150 142 130 
0.0446082 0.647051 -5.41304 -0.163553 0.96055 -0.224933 152 144 131 
0.0248401 0.64271 -5.41291 -0.252256 0.891183 -0.377041 143 135 122 
-0.00193338 0.629831 -5.41425 -0.301389 0.773672 -0.557311 127 120 110 
-0.0218919 0.61503 -5.42063 -0.332608 0.754898 -0.565244 115 109 95 
-0.012246 0.624319 -5.41684 -0.334176 0.755059 -0.564104 128 122 111 
-0.203622 0.516339 -5.41429 -0.210927 0.971094 -0.111741 51 50 47 
-0.218011 0.523109 -5.42213 0.192976 0.771666 -0.606046 48 48 43 
-0.228609 0.525828 -5.41657 0.211345 0.926569 -0.311133 67 65 57 
-0.24204 0.520701 -5.42448 0.0591055 0.861896 -0.503628 55 54 49 
-0.252363 0.523742 -5.41942 0.130187 0.909158 -0.39558 70 67 60 
-0.281078 0.545682 -5.43682 0.227438 0.537066 -0.812301 56 53 47 
-0.295253 0.540979 -5.44205 0.0119202 0.42838 -0.90352 72 70 64 
-0.321947 0.548387 -5.44813 0.17775 0.508699 -0.842396 72 69 62 
-0.343375 0.546244 -5.45128 0.384449 0.616612 -0.687014 97 93 86 
-0.357094 0.554362 -5.45571 0.182545 0.508026 -0.841776 94 90 82 
-0.41439 0.547856 -5.46792 0.59219 0.74462 -0.30798 96 91 80 
1.20252 0.756765 -5.24379 -0.359996 0.932854 -0.0136318 162 151 137 
0.9076 0.69041 -5.27394 0.16952 0.96725 0.188921 140 128 107 
0.75071 0.674742 -5.30273 -0.186022 0.843047 -0.504646 160 153 139 
0.492225 0.643757 -5.33405 -0.325479 0.927141 0.185672 167 159 147 
0.482574 0.641693 -5.34047 -0.293373 0.952396 0.082905 172 164 151 
0.47281 0.637034 -5.33559 -0.374341 0.907786 0.189193 175 163 144 
0.363902 0.573778 -5.33385 0.0618683 0.985275 0.159392 118 109 89 
0.24294 0.573796 -5.36465 -0.387495 0.845 -0.368541 200 172 87 
0.133601 0.649422 -5.41269 0.26918 0.956725 0.110545 166 158 143 
0.0723215 0.649862 -5.42327 -0.234388 0.915858 -0.325985 151 140 123 
0.0524306 0.6463 -5.42187 -0.16682 0.937613 -0.305046 155 146 133 
0.0628762 0.644874 -5.4273 -0.28321 0.888217 -0.36175 148 137 120 
0.0335985 0.63637 -5.42953 -0.269109 0.844421 -0.463177 142 134 121 
0.024201 0.635167 -5.42366 -0.309116 0.863119 -0.399341 141 134 122 
0.0236155 0.63068 -5.43199 -0.366509 0.798207 -0.478056 134 127 115 
-0.00182592 0.622141 -5.42446 -0.333656 0.765814 -0.54973 125 119 108 
0.0139216 0.629843 -5.42498 -0.359284 0.798691 -0.482708 135 128 118 
-0.0116234 0.613825 -5.4279 -0.333878 0.756016 -0.562997 114 110 99 
-0.0538199 0.600327 -5.4277 -0.157666 0.855497 -0.493221 80 77 73 
-0.185621 0.510122 -5.41607 0.141089 0.704914 -0.695118 30 30 28 
-0.191235 0.513596 -5.41999 0.244993 0.953242 -0.176943 26 27 25 
-0.202542 0.512648 -5.42611 0.223836 0.973124 0.0541092 44 45 45 
-0.250543 0.514877 -5.43005 0.136211 0.812554 -0.566747 67 65 62 
-0.277435 0.536275 -5.44183 0.182736 0.751072 -0.634428 57 57 54 
-0.304283 0.505559 -5.44273 0.241 0.541098 -0.805687 64 61 57 
-0.331264 0.532567 -5.45787 0.344441 0.598257 -0.723498 65 64 59 
-0.337809 0.543001 -5.45583 0.231085 0.535665 -0.812196 60 57 51 
-0.357038 0.532529 -5.46629 0.0747848 0.458982 -0.885293 61 59 55 
-0.385758 0.548155 -5.46812 0.127945 0.481863 -0.866856 87 86 79 
-0.412813 0.527251 -5.47279 0.535795 0.777369 -0.329578 107 104 98 
0.772499 0.678965 -5.30489 -0.271047 0.858212 -0.435897 172 164 151 
0.761809 0.673606 -5.30976 -0.275803 0.859944 -0.429452 165 157 144 
0.472874 0.639166 -5.34733 -0.268049 0.953093 0.140582 144 128 106 
0.253023 0.573701 -5.3723 -0.212513 0.864766 -0.454992 190 160 81 
0.144948 0.646007 -5.41949 0.362716 0.929214 0.0707057 156 148 133 
0.0722817 0.646195 -5.43397 -0.172647 0.90004 -0.400151 140 127 108 
0.0631157 0.640312 -5.43918 -0.191963 0.854863 -0.482037 146 137 123 
0.0434964 0.63497 -5.4355 -0.197253 0.826 -0.52803 141 133 120 
0.0529124 0.641697 -5.43122 -0.19045 0.880063 -0.434991 145 136 122 
0.0333307 0.630929 -5.43858 -0.311703 0.814126 -0.489938 132 125 114 
0.0235497 0.624795 -5.44214 -0.344956 0.765395 -0.543301 124 118 107 
0.0341088 0.633141 -5.43699 -0.24632 0.839467 -0.484377 134 127 115 
-0.000504105 0.608773 -5.43654 -0.331287 0.755851 -0.564746 110 105 96 
0.00885092 0.619039 -5.4324 -0.300473 0.707018 -0.640188 121 115 105 
-0.140483 0.511045 -5.42541 -0.311107 0.947506 0.0737926 6 6 6 
-0.262003 0.50366 -5.43954 -0.0626562 0.978218 -0.197897 50 49 47 
1.23472 0.762825 -5.26195 -0.00866026 0.993707 0.111676 169 159 143 
1.23431 0.763223 -5.26178 -0.038121 0.998573 0.0374089 168 158 143 
1.02288 0.611337 -5.24421 0.639278 0.698826 0.320883 60 55 42 
0.904439 0.694217 -5.29539 0.0913529 0.995583 0.0216745 109 98 79 
0.772539 0.672854 -5.31692 -0.251329 0.839812 -0.481196 153 145 133 
0.762468 0.666483 -5.32148 -0.342618 0.75855 -0.55427 137 129 117 
0.234266 0.559013 -5.38319 -0.203464 0.889059 -0.410095 157 140 101 
0.082116 0.646221 -5.43976 -0.0572702 0.909752 -0.411184 131 118 98 
0.0728537 0.639258 -5.44515 -0.344249 0.857016 -0.383428 144 136 121 
0.0629042 0.634995 -5.44862 -0.315245 0.82651 -0.466371 137 128 117 
0.0529402 0.635953 -5.44155 -0.27933 0.842403 -0.460795 139 132 120 
0.0432461 0.630399 -5.44542 -0.314694 0.793683 -0.52061 135 128 117 
-0.00980451 0.598109 -5.44082 -0.210364 0.776285 -0.594247 110 105 97 
-0.0106797 0.594722 -5.44904 -0.348702 0.777483 -0.52338 97 93 87 
0.00896373 0.611086 -5.44255 -0.318071 0.771616 -0.550854 121 115 106 
-0.000474635 0.600405 -5.44548 -0.224448 0.724534 -0.651669 112 107 99 
0.0213407 0.627242 -5.44879 -0.167241 0.836828 -0.521297 118 112 103 
-0.0217301 0.600296 -5.4416 -0.3196 0.73931 -0.592687 93 89 83 
-0.156201 0.498247 -5.42706 -0.269589 0.692295 -0.669364 10 10 10 
1.23428 0.764383 -5.27382 0.00193855 0.998025 0.0627872 171 159 142 
1.2347 0.764272 -5.27348 0.000277668 0.997962 0.063813 171 159 142 
1.21011 0.760272 -5.2782 -0.214662 0.956545 0.197334 179 170 155 
0.914993 0.691814 -5.30207 0.216534 0.968035 0.126572 103 90 71 
0.914872 0.691965 -5.30193 0.213936 0.968951 0.123957 103 90 71 
0.816355 0.682405 -5.31925 -0.315374 0.861573 -0.397783 133 120 97 
0.783887 0.674481 -5.32193 -0.333904 0.772797 -0.539716 160 152 138 
0.762491 0.661208 -5.32956 -0.33758 0.753561 -0.56408 155 148 137 
0.739367 0.659083 -5.32602 -0.0266652 0.793234 -0.608333 134 128 114 
0.443333 0.634063 -5.378 -0.411464 0.880718 -0.234591 157 145 123 
0.0921051 0.641125 -5.45623 -0.254408 0.853337 -0.455074 127 120 108 
0.0824679 0.640078 -5.45198 -0.265324 0.855217 -0.445204 126 118 106 
0.0728999 0.634239 -5.45602 -0.341069 0.840734 -0.420521 142 135 123 
0.00876457 0.603907 -5.44967 -0.248592 0.717626 -0.65055 106 101 92 
-0.00619786 0.587021 -5.45445 -0.245183 0.835918 -0.491046 88 85 78 
0.0206426 0.616307 -5.45991 -0.211363 0.83167 -0.51347 105 102 95 
0.81676 0.676329 -5.33082 -0.241897 0.852318 -0.463724 126 111 89 
0.805708 0.670991 -5.33559 -0.354856 0.84042 -0.409599 167 157 141 
0.784456 0.665153 -5.3334 -0.280979 0.791479 -0.542782 156 148 136 
0.77318 0.659608 -5.33674 -0.346105 0.750981 -0.562352 152 144 133 
0.751663 0.655612 -5.33298 -0.224514 0.706454 -0.671205 137 130 117 
0.434122 0.629249 -5.39439 -0.426106 0.886782 -0.17903 141 130 107 
0.285128 0.562575 -5.39359 -0.12692 0.662202 -0.738499 139 103 33 
0.2522 0.552925 -5.39211 -0.304266 0.700074 -0.646002 132 96 31 
0.154734 0.644505 -5.44878 0.463749 0.883413 0.067227 117 111 104 
0.0826778 0.634273 -5.46306 -0.271638 0.851633 -0.448257 134 127 117 
0.0726041 0.630138 -5.4662 -0.36427 0.854086 -0.371273 120 112 103 
0.00244462 0.584443 -5.46041 -0.279938 0.758057 -0.589054 88 85 80 
-0.0143709 0.584188 -5.45888 -0.390512 0.910782 -0.134075 74 73 72 
0.815601 0.671778 -5.34273 -0.342482 0.807541 -0.48019 157 142 122 
0.794858 0.666984 -5.33877 -0.278529 0.800577 -0.530564 151 142 128 
0.783734 0.659359 -5.34369 -0.279518 0.792802 -0.541604 145 136 125 
0.773282 0.651399 -5.34692 -0.256018 0.728331 -0.635602 131 122 110 
0.76236 0.654055 -5.34014 -0.0920715 0.681921 -0.725607 141 136 122 
0.751414 0.64682 -5.34389 -0.128814 0.685624 -0.716469 139 133 121 
0.735837 0.637081 -5.34838 0.0129022 0.78035 -0.62521 126 121 111 
0.718144 0.63496 -5.34807 0.12544 0.686747 -0.715992 135 129 115 
0.684595 0.637179 -5.35733 0.189357 0.747049 -0.637229 118 113 101 
0.666815 0.638412 -5.36143 0.0773823 0.772188 -0.630665 120 115 103 
0.443745 0.631176 -5.40074 -0.194627 0.946595 -0.257057 137 127 109 
0.299738 0.556173 -5.39927 -0.0617604 0.591215 -0.804146 138 105 28 
0.284762 0.545035 -5.40184 -0.0867234 0.535684 -0.839953 134 100 28 
0.114763 0.635799 -5.47257 -0.0475074 0.812822 -0.580571 103 98 91 
0.104264 0.630859 -5.47694 -0.12994 0.81419 -0.565872 121 115 107 
0.0834977 0.625526 -5.47457 -0.168095 0.763971 -0.62297 138 131 120 
0.0928224 0.632237 -5.47012 -0.253145 0.78379 -0.567091 138 131 120 
0.00750475 0.576062 -5.46544 -0.17808 0.735956 -0.65319 80 79 73 
0.874211 0.682316 -5.34924 -0.322784 0.859827 -0.395612 139 130 113 
0.826749 0.669812 -5.35072 -0.347321 0.775512 -0.52721 130 119 99 
0.805875 0.665243 -5.34674 -0.35315 0.78155 -0.514261 156 140 121 
0.795596 0.658448 -5.34994 -0.324118 0.758685 -0.565107 129 120 106 
0.784996 0.649103 -5.35421 -0.275209 0.745729 -0.606752 122 113 102 
0.761577 0.644462 -5.35014 -0.203852 0.611677 -0.764393 109 102 92 
0.748434 0.633318 -5.3559 -0.232516 0.696418 -0.678924 122 118 110 
0.73154 0.637076 -5.35543 -0.229868 0.697163 -0.679062 116 112 103 
0.718346 0.626952 -5.35713 0.208643 0.686067 -0.69698 132 126 113 
0.667169 0.628623 -5.37047 0.202997 0.685491 -0.699209 107 100 85 
0.655597 0.635222 -5.36718 0.157716 0.687441 -0.708908 109 103 88 
0.643787 0.633392 -5.37381 0.245409 0.713295 -0.656495 110 104 88 
0.578802 0.638818 -5.38604 0.0212742 0.870477 -0.49175 129 119 102 
0.56771 0.637043 -5.39297 -0.19034 0.819509 -0.540533 118 109 94 
0.32661 0.540813 -5.40629 -0.0649303 0.417327 -0.906434 132 101 26 
0.314808 0.544876 -5.40321 0.0106725 0.467216 -0.884079 138 105 21 
0.289062 0.538823 -5.405 -0.140074 0.538423 -0.830951 135 100 26 
0.274873 0.526892 -5.40656 0.0012842 0.588768 -0.808301 132 94 23 
0.0940287 0.623618 -5.48035 -0.235005 0.725659 -0.646678 135 129 118 
0.0748103 0.615593 -5.48163 -0.252735 0.726968 -0.638469 119 113 104 
0.852414 0.672431 -5.35775 -0.179321 0.84086 -0.510683 115 104 87 
0.840197 0.666743 -5.36152 -0.257854 0.810015 -0.526676 139 129 112 
0.817211 0.662703 -5.35496 -0.400678 0.72323 -0.56249 152 134 111 
0.806681 0.65645 -5.35797 -0.314065 0.738738 -0.596347 138 120 97 
0.795868 0.648317 -5.3605 -0.302501 0.717483 -0.627464 133 121 105 
0.773224 0.642466 -5.35755 -0.29124 0.614675 -0.733045 143 137 125 
0.759424 0.633358 -5.36218 -0.270458 0.680769 -0.68074 142 136 128 
0.706872 0.622013 -5.36447 0.0959843 0.763833 -0.638237 119 111 97 
0.695734 0.619442 -5.37072 0.286911 0.682942 -0.671768 128 120 107 
0.687521 0.617235 -5.37132 0.114315 0.689467 -0.715239 116 111 98 
0.684301 0.626744 -5.36758 0.21256 0.685954 -0.695906 117 112 98 
0.655406 0.62622 -5.37728 0.232979 0.702484 -0.672486 111 103 88 
0.622167 0.631219 -5.38306 0.255611 0.686449 -0.680773 115 109 95 
0.609652 0.62693 -5.3897 0.0510707 0.692762 -0.719356 121 112 97 
0.594326 0.628917 -5.39474 0.120942 0.7684 -0.628438 105 99 85 
0.582585 0.632467 -5.39094 0.00515349 0.80677 -0.590843 118 109 94 
0.567721 0.627171 -5.40202 0.155846 0.690189 -0.706648 115 108 92 
0.546641 0.630045 -5.40359 0.115772 0.805018 -0.581845 103 88 63 
0.452214 0.624819 -5.42115 -0.20212 0.879361 -0.431128 104 96 87 
0.342221 0.53041 -5.40931 0.0524564 0.511326 -0.857784 110 93 56 
0.316036 0.529142 -5.41156 -0.0636869 0.419099 -0.905704 143 104 14 
0.2945 0.526127 -5.40928 -0.0548304 0.475 -0.878276 134 99 18 
0.117649 0.625544 -5.48435 0.122924 0.697214 -0.706245 143 136 126 
0.104911 0.619971 -5.48722 -0.200269 0.734701 -0.648156 119 114 105 
0.0754318 0.604831 -5.49191 -0.304207 0.706747 -0.638723 104 99 90 
0.0855003 0.612444 -5.4885 -0.304947 0.705863 -0.639348 113 106 96 
0.874166 0.677166 -5.36061 -0.330366 0.85486 -0.400091 135 125 109 
0.86239 0.670812 -5.3648 -0.301544 0.846861 -0.438061 126 116 101 
0.851338 0.665961 -5.36859 -0.243321 0.814356 -0.526896 138 128 110 
0.82749 0.661999 -5.36268 -0.351428 0.762339 -0.54345 137 126 108 
0.817232 0.654711 -5.36509 -0.382564 0.741102 -0.551735 130 115 94 
0.807017 0.647002 -5.36755 -0.258017 0.704212 -0.661448 137 125 108 
0.785107 0.639978 -5.36463 -0.361572 0.571115 -0.736949 173 165 154 
0.772557 0.625515 -5.36772 -0.228921 0.504901 -0.832268 108 104 94 
0.748434 0.623144 -5.36636 -0.233016 0.697132 -0.67802 125 119 111 
0.727946 0.62764 -5.37224 -0.200276 0.771697 -0.603633 102 98 89 
0.728795 0.628002 -5.37557 -0.156368 0.891654 -0.424856 108 106 100 
0.688137 0.604475 -5.37944 -0.200075 0.463529 -0.863198 104 99 86 
0.675158 0.61777 -5.37855 0.161485 0.636135 -0.75449 109 102 89 
0.644256 0.616798 -5.38891 0.294712 0.681981 -0.669363 111 106 99 
0.634907 0.617047 -5.39422 0.210303 0.678907 -0.703462 112 105 95 
0.594062 0.620074 -5.40451 0.186769 0.651887 -0.734956 110 105 91 
0.582345 0.626258 -5.40141 0.106928 0.789087 -0.604903 112 108 93 
0.555786 0.627135 -5.40921 0.120559 0.738683 -0.663184 101 90 69 
0.53631 0.628205 -5.41069 0.094158 0.779305 -0.61953 105 90 63 
0.463657 0.622061 -5.42777 -0.12003 0.856725 -0.501613 81 73 60 
0.442814 0.617469 -5.42665 -0.150847 0.805151 -0.573565 136 131 118 
0.453289 0.615046 -5.43362 -0.247593 0.740276 -0.625051 114 110 101 
0.432766 0.608359 -5.4324 -0.212594 0.71864 -0.662088 119 116 100 
0.316622 0.507923 -5.4183 -0.171094 0.505556 -0.845659 142 99 13 
0.331382 0.518022 -5.4165 -0.120695 0.462723 -0.878248 126 100 40 
0.0868049 0.601541 -5.49869 -0.0792933 0.483679 -0.871646 102 97 87 
0.873763 0.668912 -5.37293 -0.346162 0.852142 -0.392461 134 124 106 
0.862694 0.664945 -5.37634 -0.370277 0.775416 -0.511493 132 121 103 
0.840181 0.659425 -5.37288 -0.244134 0.784438 -0.570137 145 136 120 
0.828853 0.651969 -5.37635 -0.41118 0.751414 -0.516051 136 127 112 
0.818988 0.644215 -5.37883 -0.43577 0.637553 -0.635319 138 130 118 
0.755906 0.605117 -5.37586 -0.249499 0.674272 -0.69506 128 122 112 
0.717985 0.607905 -5.37808 0.107829 0.691776 -0.714016 91 87 78 
0.632892 0.605392 -5.40233 0.190299 0.689976 -0.698369 97 93 85 
0.621398 0.611348 -5.39891 -0.0432181 0.63296 -0.772978 106 100 88 
0.605742 0.611795 -5.40696 0.204143 0.689456 -0.694965 111 105 95 
0.582811 0.616592 -5.41111 0.179615 0.672607 -0.717871 103 97 85 
0.567297 0.620236 -5.41224 0.140479 0.772301 -0.61953 92 83 67 
0.536321 0.620147 -5.42071 0.206283 0.66287 -0.719758 106 94 66 
0.494935 0.619656 -5.43264 -0.0181772 0.773541 -0.633485 152 145 129 
0.472955 0.620593 -5.43294 -0.0429154 0.83409 -0.549956 131 122 105 
0.443837 0.607045 -5.43862 -0.219591 0.733383 -0.643374 126 122 111 
0.433081 0.598163 -5.44279 -0.363055 0.724524 -0.585881 96 93 86 
0.884779 0.667801 -5.37985 -0.454465 0.786192 -0.418764 146 136 118 
0.873189 0.665403 -5.38137 -0.328901 0.798042 -0.504929 125 115 97 
0.862389 0.658546 -5.38681 -0.396964 0.756159 -0.520233 134 123 108 
0.852062 0.658676 -5.37919 -0.377953 0.724698 -0.576164 149 141 127 
0.840245 0.651054 -5.38393 -0.257849 0.671654 -0.694546 128 119 106 
0.829319 0.642853 -5.38604 -0.273373 0.644878 -0.713722 103 94 84 
0.808714 0.63491 -5.37966 -0.328402 0.540264 -0.774769 117 112 100 
0.621359 0.601937 -5.40848 0.169533 0.691604 -0.702099 103 98 90 
0.582703 0.60406 -5.41968 0.0992231 0.578418 -0.809684 110 105 93 
0.568019 0.607959 -5.4205 0.127208 0.598633 -0.790858 97 90 73 
